# .PCD v0.7 - Point Cloud Data file format
VERSION 0.7
FIELDS x y z
SIZE 4 4 4
TYPE F F F
COUNT 1 1 1
WIDTH 1420
HEIGHT 1
VIEWPOINT 0 0 0 1 0 0 0
POINTS 1420
DATA ascii
0.068743691 -2.8569877 5.9470005
0.079742678 -2.8569877 5.9470005
0.19030684 -2.8656349 5.9650002
0.1683269 -2.8339627 5.9680004
0.19056208 -2.8584311 5.973
0.16838332 -2.8459539 5.9700003
0.179515 -2.8473842 5.973
0.19056208 -2.8473842 5.973
0.17942484 -2.8349125 5.9700003
0.60191268 -2.9929206 5.9990001
0.54598141 -2.9793401 5.9940004
0.54616356 -2.9692445 5.9960003
0.602314 -2.9838135 6.0030003
0.602615 -2.9741967 6.0060005
0.68150461 -3.0014019 6.0160003
0.70445967 -3.0043952 6.0220003
0.71535975 -3.0033975 6.0200005
0.693322 -2.9932575 6.0220003
0.70469368 -2.9942517 6.0240002
0.01392444 -2.6150098 6.0230002
0.79501086 -3.0098832 6.0330005
0.70574647 -2.965251 6.0330005
0.70598042 -2.9550724 6.0350003
0.67238379 -2.9434228 6.0340004
0.68377024 -2.9443984 6.0360003
0.69516408 -2.945374 6.0380001
0.66122389 -2.9322629 6.0340004
0.67305237 -2.9351785 6.0400004
0.68456322 -2.9366364 6.0430002
0.69539434 -2.9351785 6.0400004
0.67305237 -2.9240077 6.0400004
0.68456322 -2.9254599 6.0430002
1.0219691 -3.0155056 6.0555005
0.6073308 -2.8743258 6.0530005
0.61842364 -2.8738511 6.0520005
0.62940872 -2.8729012 6.0500002
0.61893457 -2.8650229 6.0570002
0.60793281 -2.8435566 6.0590005
1.0453169 -3.0126426 6.0610003
0.61924112 -2.8552339 6.0600004
0.59692365 -2.8444953 6.0610003
0.23820895 -2.6315084 6.0610003
0.27210757 -2.6341133 6.0670004
0.24966569 -2.6228924 6.0670004
1.0479039 -2.9751482 6.0760002
1.036837 -2.9643984 6.0770001
1.0484214 -2.965374 6.0790005
0.59859788 -2.7850258 6.0780001
0.2499126 -2.6367185 6.0730004
0.26110163 -2.6362844 6.0720005
0.23875919 -2.6038795 6.0750003
1.1953681 -3.0348284 6.0830002
1.2068169 -3.0353272 6.0840001
1.1728669 -3.0235779 6.0830002
1.0271164 -2.9350204 6.0860004
0.9820922 -2.9125082 6.0860004
0.97115517 -2.9022057 6.0880003
0.61003983 -2.7859423 6.0800004
0.64430416 -2.7882333 6.0850005
0.59928727 -2.7769792 6.0850005
0.61064184 -2.7774355 6.0860004
0.64472771 -2.7788045 6.0890002
0.59968126 -2.7562814 6.0890002
0.238995 -2.5952046 6.0810003
0.25044757 -2.5860822 6.0860004
0.25057104 -2.5760953 6.0890002
0.26178965 -2.5756724 6.0880003
0.23930942 -2.5648339 6.0890002
1.2200713 -3.0177746 6.0940003
1.1413625 -2.9731789 6.0950003
1.1530135 -2.9741545 6.0970001
1.130646 -2.9633641 6.0980005
1.0503185 -2.9369495 6.0900002
1.0395669 -2.9271274 6.0930004
0.6566357 -2.7815428 6.0950003
0.59977973 -2.7679975 6.0900002
0.23950592 -2.5782108 6.0940003
0.21692859 -2.5439806 6.0930004
0.217071 -2.5343742 6.0970001
0.217071 -2.523098 6.0970001
1.3013121 -3.034513 6.1050005
1.3132483 -3.0360043 6.1080003
1.2452638 -3.0016224 6.1070004
1.234171 -2.9908171 6.1080003
1.1876214 -2.9873896 6.1010003
1.1648628 -2.9756179 6.1000004
1.1654357 -2.9657938 6.1030002
1.0298167 -2.897594 6.1020002
1.0414436 -2.8985436 6.1040001
0.19477339 -2.5038261 6.1050005
0.1948691 -2.4937596 6.1080003
1.3593249 -3.0492966 6.1120005
1.3251957 -3.0374954 6.1110001
1.2910774 -3.0143974 6.1100001
1.2693069 -2.9937551 6.1140003
1.2701373 -2.9843984 6.1180005
1.2240756 -2.9711394 6.1140003
1.2131643 -2.9607997 6.1160002
1.1903466 -2.9490058 6.1150002
1.1560392 -2.9367354 6.1130004
1.1224884 -2.9150767 6.1150002
0.68129838 -2.7336743 6.1140003
0.17252943 -2.4748075 6.1170001
0.18372262 -2.4731891 6.1130004
0.18381278 -2.4630914 6.1160002
0.18387289 -2.4525814 6.1180005
1.4299519 -3.0552833 6.1240001
1.4188572 -3.0444541 6.1250005
1.2256771 -2.9523818 6.1220002
1.2147512 -2.9420199 6.1240001
1.1919038 -2.9302149 6.1230001
1.1809649 -2.9198439 6.1250005
1.1583086 -2.9085157 6.1250005
0.78447795 -2.7612491 6.1250005
0.79619592 -2.7626016 6.1280003
0.17261405 -2.4647021 6.1200004
0.17261405 -2.4533832 6.1200004
0.17264225 -2.4424634 6.1210003
0.18396306 -2.4424634 6.1210003
0.17275508 -2.4327312 6.1250005
0.18405321 -2.4323342 6.1240001
0.17281148 -2.4221938 6.1270003
1.3079199 -2.9591334 6.1360002
0.81939793 -2.7644048 6.1320004
0.79658574 -2.7526147 6.1310005
0.77491695 -2.7221441 6.1390004
0.16163771 -2.4132228 6.1330004
0.16169043 -2.402663 6.1350002
0.15041724 -2.3811333 6.1380005
0.80924278 -2.7343888 6.1410003
0.78652722 -2.723031 6.1410003
0.15051527 -2.3940446 6.1420002
0.13915563 -2.3826852 6.1420002
1.4146528 -2.9687786 6.1560001
1.3807205 -2.946486 6.1570001
0.85731828 -2.7086701 6.1600003
0.55051219 -2.5300744 6.1690001
0.53884047 -2.5288439 6.1660004
0.53892785 -2.517848 6.1670003
0.55060142 -2.519073 6.1700001
0.22023965 -2.2967849 6.1860003
0.23168068 -2.2967849 6.1860003
0.20886613 -2.2860827 6.1880002
0.22048888 -2.28793 6.1930003
0.23198029 -2.2882996 6.1940002
0.24347541 -2.2886689 6.1950002
0.25489193 -2.2882996 6.1940002
0.20893365 -2.2753732 6.1900001
0.22052447 -2.2768435 6.1940002
0.23201774 -2.2772112 6.1950002
0.24351472 -2.2775788 6.1960001
0.19774047 -2.2668507 6.1980004
0.20913617 -2.2661192 6.1960001
0.2207025 -2.2672164 6.1990004
0.232205 -2.2675822 6.2000003
0.24375053 -2.2683136 6.2020001
0.25522113 -2.2683136 6.2020001
0.19789998 -2.2572069 6.2030001
0.20933869 -2.2568431 6.2020001
0.22084491 -2.2572069 6.2030001
0.23239227 -2.2579348 6.2050004
0.24394704 -2.2586625 6.2070003
0.25546804 -2.2590265 6.2080002
0.19793189 -2.2460966 6.2040005
0.20937245 -2.2457345 6.2030001
0.22088051 -2.2460966 6.2040005
0.23242973 -2.2468207 6.2060003
0.24398634 -2.2475448 6.2080002
0.20970997 -2.237864 6.2130003
0.22112973 -2.2371435 6.2110004
0.23257953 -2.2367835 6.2100005
0.22127214 -2.2270896 6.2150002
0.22130774 -2.2159514 6.2160001
0.56738704 -2.370353 6.2290001
0.20994624 -2.2173774 6.2200003
0.59061772 -2.3826385 6.2310004
0.59099686 -2.3726363 6.2350001
0.57965112 -2.3618619 6.2370005
1.5178981 -2.726434 6.2530003
1.2811517 -2.5303471 6.2830005
1.3052229 -2.5319579 6.2870002
1.2587116 -2.5087023 6.2870002
0.59602058 -2.2299893 6.2880001
1.3413852 -2.5343742 6.2930002
1.3424511 -2.5247397 6.2980003
1.3191547 -2.5130916 6.2980003
1.2958584 -2.5014434 6.2980003
1.3075066 -2.5014434 6.2980003
0.56139928 -2.2077827 6.2910004
0.58494854 -2.2088356 6.2940001
0.56166703 -2.1971948 6.2940001
1.3545293 -2.5255415 6.3000002
1.3320707 -2.5038266 6.3040004
1.3439431 -2.5042238 6.3050003
1.3562492 -2.5054152 6.3080001
1.3085446 -2.4917719 6.3030005
1.3204114 -2.4921672 6.3040004
1.3327047 -2.4933534 6.3070002
1.3447957 -2.494144 6.3090005
1.2265533 -2.4560201 6.3010001
1.2386001 -2.4567997 6.3030005
1.2271373 -2.4455302 6.3040004
1.2395827 -2.447082 6.3080001
1.2158637 -2.4346433 6.3060002
1.3573242 -2.4957254 6.3130002
1.3216681 -2.4828689 6.3100004
1.3337612 -2.4836559 6.3120003
1.3458616 -2.4844429 6.3140001
1.3225061 -2.4727652 6.3140001
1.3343951 -2.4731567 6.3150005
1.346501 -2.4739399 6.3170004
1.2399757 -2.4361875 6.3100004
1.3824258 -2.4871972 6.3210001
1.3588293 -2.4751148 6.3200002
1.3709519 -2.4758983 6.3220005
1.3475667 -2.4642055 6.3220005
1.3594743 -2.4645953 6.3230004
1.3486326 -2.4544528 6.3270001
1.3490589 -2.4435232 6.3290005
1.3375647 -2.4439092 6.3300004
1.3381985 -2.4333546 6.3330002
1.3496983 -2.4329703 6.3320003
1.3390439 -2.4231713 6.3370004
1.3507642 -2.4231713 6.3370004
1.3401003 -2.4133534 6.3420005
1.352043 -2.4137342 6.3430004
1.3639895 -2.4141147 6.3440003
1.3407342 -2.40276 6.3450003
1.3524693 -2.40276 6.3450003
1.3644195 -2.4031386 6.3460002
1.3417908 -2.392909 6.3500004
1.3535352 -2.392909 6.3500004
1.3652794 -2.392909 6.3500004
1.3428473 -2.3830397 6.3550005
1.3546009 -2.3830397 6.3550005
1.3195478 -2.3716593 6.3560004
1.3315127 -2.3720324 6.3570004
1.3434812 -2.3724055 6.3580003
1.3552403 -2.3724055 6.3580003
1.319963 -2.3606465 6.3580003
1.295833 -2.3595326 6.3550005
1.3077923 -2.3599038 6.3560004
1.2966486 -2.3492568 6.3590002
1.3323505 -2.3617604 6.3610005
1.3569456 -2.3636167 6.3660002
1.3329788 -2.351104 6.3640003
1.3458055 -2.352951 6.3690004
1.3086153 -2.3496261 6.3600001
1.3205857 -2.3499956 6.3610005
1.3455943 -2.3408041 6.3680005
1.2854937 -2.3385985 6.3620005
1.2972603 -2.3385985 6.3620005
1.3090268 -2.3385985 6.3620005
1.3210009 -2.3389661 6.3630004
1.3331883 -2.3397012 6.3650002
0.56809217 -2.0103989 6.3660002
1.3580114 -2.3419068 6.3710003
1.3108786 -2.3301237 6.3710003
1.3348639 -2.3308551 6.3730001
1.3233885 -2.3255048 6.3745003
0.58041263 -2.0005085 6.3720002
0.53327256 -1.9769385 6.3720002
1.337168 -2.3112638 6.3840003
1.2547139 -2.2643895 6.3850002
1.2669197 -2.2650988 6.3870001
1.2789327 -2.2654536 6.3880005
1.2082341 -2.2303586 6.3890004
1.3151996 -2.2786942 6.3920002
1.3270216 -2.2786942 6.3920002
1.2913535 -2.2665174 6.3910003
1.3039893 -2.267936 6.3950005
1.3162284 -2.2686453 6.3970003
1.327852 -2.2682905 6.3960004
1.3394719 -2.267936 6.3950005
1.2556964 -2.2543445 6.3900003
1.2677131 -2.2546973 6.3910003
1.2797335 -2.2550499 6.3920002
1.2923638 -2.2564611 6.3960004
1.2442675 -2.243228 6.3920002
1.256286 -2.2435789 6.3930001
1.2681098 -2.2435789 6.3930001
1.2803341 -2.2442808 6.3950005
1.2929699 -2.2456846 6.3990002
1.2202415 -2.2307079 6.3900003
1.2326382 -2.231755 6.3930001
1.2210053 -2.2202785 6.3940005
1.2336023 -2.2216675 6.3980002
1.2089905 -2.2199311 6.3930001
1.3288901 -2.2582252 6.4010005
1.3405192 -2.2578723 6.4000001
1.3523561 -2.2578723 6.4000001
1.364406 -2.2582252 6.4010005
1.3056206 -2.2470884 6.4030004
1.3178744 -2.2477903 6.4050002
1.3295128 -2.2474394 6.4040003
1.3411477 -2.2470884 6.4030004
1.3527787 -2.2467375 6.4020004
1.3648323 -2.2470884 6.4030004
1.2696967 -2.2345479 6.4010005
1.2817355 -2.2348969 6.4020004
1.2941823 -2.2359443 6.4050002
1.3064362 -2.2366424 6.4070005
1.3182859 -2.2366424 6.4070005
1.3301357 -2.2366424 6.4070005
1.3419855 -2.2366424 6.4070005
1.3540465 -2.2369914 6.4080005
1.3661113 -2.2373407 6.4090004
1.2460194 -2.2227092 6.4010005
1.2231059 -2.2004061 6.4050002
0.9143939 -2.0448098 6.4000001
0.92666489 -2.0457683 6.4030004
0.9152512 -2.0348787 6.4060001
0.92753327 -2.0358317 6.4090004
1.3074557 -2.2265289 6.4120002
1.319109 -2.2261815 6.4110003
1.3309661 -2.2261815 6.4110003
1.3426138 -2.2258344 6.4100003
1.355103 -2.226876 6.4130001
1.3678166 -2.228265 6.4170003
1.3203435 -2.2163968 6.4170003
1.3322117 -2.2163968 6.4170003
1.3438705 -2.2160513 6.4160004
1.3561596 -2.2167423 6.4180002
1.2722753 -2.2034979 6.4140005
1.2845385 -2.204185 6.4160004
1.2968091 -2.2048721 6.4180002
1.3088831 -2.2052157 6.4190001
1.320755 -2.2052157 6.4190001
1.3326269 -2.2052157 6.4190001
1.3444989 -2.2052157 6.4190001
1.3809748 -2.2303486 6.4230003
1.3690954 -2.2184691 6.4230003
1.3570048 -2.2062464 6.4220004
1.3697349 -2.2076204 6.4260001
1.2855395 -2.1940272 6.4210005
1.2978194 -2.1947105 6.4230003
1.3099025 -2.1950521 6.4240003
1.3217838 -2.1950521 6.4240003
1.3338726 -2.1953938 6.4250002
1.3459651 -2.1957355 6.4260001
1.3584839 -2.1967607 6.4290004
1.3109221 -2.1848702 6.4290004
1.1910906 -2.1356461 6.4240003
1.2033463 -2.1363111 6.4260001
1.2156094 -2.136976 6.4280005
1.191276 -2.1240954 6.4250002
1.2035335 -2.1247568 6.4270005
1.2157985 -2.1254179 6.4290004
1.1920177 -2.1135275 6.4290004
1.3824798 -2.2208869 6.4300003
1.3831248 -2.2100253 6.4330001
1.3710139 -2.1977859 6.4320002
1.3839848 -2.1994941 6.4370003
1.3232241 -2.18555 6.4310002
1.3355335 -2.1862297 6.4330001
1.3476408 -2.1865695 6.4340005
1.3599631 -2.1872492 6.4360003
1.3722928 -2.1879289 6.4380002
1.2873415 -2.1733177 6.4300003
1.2994357 -2.1736557 6.4310002
1.3115338 -2.1739938 6.4320002
1.3240471 -2.1750078 6.4350004
1.3361562 -2.1753457 6.4360003
1.348688 -2.1763597 6.4390001
1.2758459 -2.1620977 6.4320002
1.2877419 -2.1620977 6.4320002
1.3000419 -2.16277 6.4340005
1.3125534 -2.1637785 6.4370003
1.2641463 -2.1505361 6.4330001
1.2762426 -2.1508703 6.4340005
1.2881423 -2.1508703 6.4340005
1.3008502 -2.1522076 6.4380002
1.2889431 -2.1403005 6.4380002
1.2526379 -2.1393032 6.4350004
1.2645394 -2.1393032 6.4350004
1.2768376 -2.1399679 6.4370003
1.2290257 -2.127732 6.4360003
1.1804943 -2.1141851 6.4310002
1.2042826 -2.1141851 6.4310002
1.216555 -2.1148424 6.4330001
1.1808615 -2.1029446 6.4330001
1.1925739 -2.1026177 6.4320002
1.2048444 -2.1032715 6.4340005
1.2171223 -2.1039255 6.4360003
0.52664346 -1.746552 6.4350004
1.3967575 -2.200861 6.4410005
1.4091076 -2.2015443 6.4430003
1.421024 -2.2015443 6.4430003
1.4097637 -2.1906476 6.4460001
1.421465 -2.1903079 6.4450002
1.3850598 -2.1892881 6.4420004
1.3974081 -2.1899679 6.4440002
1.4324955 -2.1889484 6.4410005
1.4441838 -2.1886084 6.4400005
1.3610196 -2.1770358 6.4410005
1.3735718 -2.1780498 6.4440002
1.3859199 -2.1787257 6.4460001
1.3980587 -2.1790638 6.4470005
1.4104198 -2.1797397 6.4490004
1.4219061 -2.1790638 6.4470005
1.4327178 -2.1773736 6.4420004
1.3252816 -2.165123 6.4410005
1.3376095 -2.1657953 6.4430003
1.3501543 -2.1668038 6.4460001
1.3624988 -2.1674762 6.4480004
1.4342747 -2.1678123 6.4490004
1.4457536 -2.16714 6.4470005
1.3137769 -2.1538789 6.4430003
1.3016584 -2.1416302 6.4420004
1.3143885 -2.1429601 6.4460001
1.3269277 -2.1439574 6.4490004
1.2899442 -2.1300464 6.4430003
1.3028708 -2.1316993 6.4480004
1.2657185 -2.1293852 6.4410005
1.2785237 -2.1249089 6.4455004
1.2297895 -2.1171436 6.4400005
1.2668974 -2.1194451 6.4470005
1.2301714 -2.1058867 6.4420004
1.24305 -2.1075213 6.4470005
1.2553631 -2.108175 6.4490004
1.1821463 -2.093322 6.4400005
1.1940571 -2.093322 6.4400005
1.2061552 -2.0936472 6.4410005
1.218257 -2.0939722 6.4420004
1.2307444 -2.0949473 6.4450002
1.2432429 -2.0959225 6.4480004
1.207466 -2.083997 6.4480004
1.2193916 -2.083997 6.4480004
1.2313173 -2.083997 6.4480004
1.1590443 -2.070786 6.4440002
1.1837984 -2.0723927 6.4490004
1.3748506 -2.1681483 6.4500003
1.386995 -2.1684844 6.4510002
1.398926 -2.1684844 6.4510002
1.4110759 -2.1688206 6.4520001
1.4230089 -2.1688206 6.4520001
1.3759164 -2.1578906 6.4550004
1.3878549 -2.1578906 6.4550004
1.3995767 -2.1575563 6.4540005
1.411732 -2.1578906 6.4550004
1.4241116 -2.1585591 6.4570003
1.4358315 -2.1582248 6.4560003
1.4475477 -2.1578906 6.4550004
1.3392704 -2.1446223 6.4510002
1.3520393 -2.145952 6.4550004
1.3644005 -2.1466169 6.4570003
1.3767691 -2.1472819 6.4590001
1.3885 -2.1469493 6.4580002
1.4002272 -2.1466169 6.4570003
1.4121695 -2.1466169 6.4570003
1.4241116 -2.1466169 6.4570003
1.4360539 -2.1466169 6.4570003
1.4477719 -2.1462846 6.4560003
1.3154081 -2.1326911 6.4510002
1.3277508 -2.1333523 6.4530001
1.3401008 -2.1340134 6.4550004
1.3528771 -2.1353359 6.4590001
1.400444 -2.1350052 6.4580002
1.4121695 -2.1346748 6.4570003
1.4238911 -2.1343441 6.4560003
1.2913456 -2.1204312 6.4500003
1.3289853 -2.12339 6.4590001
1.4126068 -2.12339 6.4590001
1.267487 -2.1085019 6.4500003
1.2802098 -2.1098096 6.4540005
1.2555578 -2.0965726 6.4500003
1.2680765 -2.0975478 6.4530001
1.2808049 -2.0988481 6.4570003
1.2436285 -2.0846434 6.4500003
1.2557524 -2.0849667 6.4510002
1.2684696 -2.0862594 6.4550004
1.2812016 -2.0875521 6.4590001
1.2082151 -2.0733569 6.4520001
1.219959 -2.0730355 6.4510002
1.2316991 -2.0727141 6.4500003
1.2438213 -2.0730355 6.4510002
1.2561417 -2.073678 6.4530001
1.2688626 -2.0749636 6.4570003
1.2214719 -2.0636604 6.4590001
1.2330359 -2.0630212 6.4570003
1.245171 -2.0633409 6.4580002
1.2573097 -2.0636604 6.4590001
1.3776217 -2.1366582 6.4630003
1.38936 -2.1363277 6.4620004
1.3411388 -2.1237187 6.4600005
1.3535055 -2.1243763 6.4620004
1.3660909 -2.1253624 6.4650002
1.3784742 -2.12602 6.4670005
1.39022 -2.1256912 6.4660001
1.4010946 -2.1240475 6.4610004
1.3298084 -2.1127517 6.4630003
1.3417616 -2.1127517 6.4630003
1.3539244 -2.1130786 6.4640002
1.3667248 -2.1143861 6.4680004
1.390865 -2.114713 6.4690003
1.401962 -2.1134055 6.4650002
1.4134816 -2.1127517 6.4630003
1.3059016 -2.1007984 6.4630003
1.3180588 -2.1011233 6.4640002
1.3298084 -2.1007984 6.4630003
1.3417616 -2.1007984 6.4630003
1.3541338 -2.1014483 6.4650002
1.4265378 -2.1024237 6.4680004
1.2933477 -2.0998232 6.4600005
1.2935479 -2.0881987 6.4610004
1.3059016 -2.088845 6.4630003
1.317855 -2.088845 6.4630003
1.3298084 -2.088845 6.4630003
1.3417616 -2.088845 6.4630003
1.3541338 -2.0894914 6.4650002
1.2815982 -2.0762489 6.4610004
1.2939483 -2.0768917 6.4630003
1.3061037 -2.077213 6.4640002
1.3180588 -2.077213 6.4640002
1.3302199 -2.0775344 6.4650002
1.3419693 -2.077213 6.4640002
1.3543433 -2.0778556 6.4660001
1.2700417 -2.0649383 6.4630003
1.28259 -2.0658967 6.4660001
1.2947491 -2.0662162 6.4670005
1.3069119 -2.0665357 6.4680004
1.3190784 -2.0668554 6.4690003
1.3549718 -2.0668554 6.4690003
1.247099 -2.0545733 6.4680004
1.2592562 -2.0548909 6.4690003
1.1271245 -1.9941435 6.4660001
1.1155107 -1.9827977 6.4680004
1.4628776 -2.1270063 6.4700003
1.5123773 -2.1293075 6.4770002
1.5243565 -2.1293075 6.4770002
1.3791137 -2.1150398 6.4700003
1.4637821 -2.1163476 6.4740005
1.3673588 -2.1033988 6.4710002
1.3797532 -2.1040487 6.4730005
1.3921551 -2.1046989 6.4750004
1.4034801 -2.1037238 6.4720001
1.4150126 -2.1030736 6.4700003
1.4391675 -2.1033988 6.4710002
1.4515842 -2.1040487 6.4730005
1.4649127 -2.105999 6.4790001
1.3673588 -2.0914307 6.4710002
1.3799664 -2.0924001 6.4740005
1.3928001 -2.093693 6.4780002
1.4047811 -2.093693 6.4780002
1.4165435 -2.0933697 6.4770002
1.4283022 -2.0930467 6.4760003
1.4405019 -2.0933697 6.4770002
1.4529297 -2.0940161 6.4790001
1.3799664 -2.0804265 6.4740005
1.393015 -2.0820332 6.4790001
1.4289638 -2.0820332 6.4790001
1.3671474 -2.0791411 6.4700003
1.393015 -2.0700502 6.4790001
1.3312486 -2.0671749 6.4700003
1.3432149 -2.0671749 6.4700003
1.3673588 -2.0674944 6.4710002
1.3799664 -2.0684528 6.4740005
1.2718103 -2.0558438 6.4720001
1.2841769 -2.0564792 6.4740005
1.2963508 -2.0567968 6.4750004
1.3087305 -2.0574322 6.4770002
1.3211175 -2.0580673 6.4790001
1.3568568 -2.0577497 6.4780002
1.3686266 -2.0574322 6.4770002
1.3810321 -2.0580673 6.4790001
1.5137783 -2.1192896 6.4830003
1.5257686 -2.1192896 6.4830003
1.5375217 -2.1189628 6.4820004
1.465591 -2.0949857 6.4820004
1.4052148 -2.0823545 6.4800005
1.4171996 -2.0823545 6.4800005
1.4411691 -2.0823545 6.4800005
1.4536024 -2.0829973 6.4820004
1.465817 -2.0833187 6.4830003
1.4058654 -2.0713284 6.4830003
1.4180744 -2.0716479 6.4840002
1.4305077 -2.0722868 6.4860005
1.4429483 -2.0729258 6.4880004
1.4551722 -2.0732453 6.4890003
1.4069496 -2.0609262 6.4880004
1.3333062 -2.0583851 6.4800005
1.345291 -2.0583851 6.4800005
1.3938751 -2.0593381 6.4830003
1.3707397 -2.0486109 6.4870005
1.3829505 -2.0489266 6.4880004
1.2014737 -1.9984611 6.4800005
1.2140203 -1.9993864 6.4830003
1.4798589 -2.1102247 6.4920001
1.5521398 -2.1105497 6.4930005
1.5156463 -2.1098998 6.4910002
1.5274161 -2.1095746 6.4900002
1.5396565 -2.1098998 6.4910002
1.565594 -2.1004801 6.4990001
1.5776138 -2.1004801 6.4990001
1.5165803 -2.0991874 6.4950004
1.5283575 -2.0988641 6.4940004
1.5406053 -2.0991874 6.4950004
1.5530959 -2.0998337 6.4970002
1.5168138 -2.0874963 6.4960003
1.5288281 -2.0874963 6.4960003
1.5410798 -2.0878177 6.4970002
1.4196054 -2.0618792 6.4910002
1.4327133 -2.0634675 6.4960003
1.44495 -2.0637851 6.4970002
1.4571905 -2.0641029 6.4980001
1.3477823 -2.05019 6.4920001
1.4086845 -2.0514531 6.4960003
1.3593704 -2.0495584 6.4900002
1.3955951 -2.0498741 6.4910002
1.409335 -2.0403807 6.4990001
1.3361868 -2.0388107 6.4940004
1.3481975 -2.0388107 6.4940004
1.3599987 -2.038497 6.4930005
1.3717961 -2.038183 6.4920001
1.3838031 -2.038183 6.4920001
1.3962401 -2.0388107 6.4940004
0.61602068 -1.6196836 6.4990001
1.5538131 -2.0887816 6.5000005
1.5660758 -2.089103 6.5010004
1.4698869 -2.0770793 6.5010004
1.5179813 -2.0770793 6.5010004
1.5297695 -2.0767598 6.5000005
1.5425029 -2.0777183 6.5030003
1.5552474 -2.0786769 6.5060005
1.5670394 -2.0783575 6.5050001
1.5191488 -2.066644 6.5060005
1.5311817 -2.066644 6.5060005
1.5439261 -2.0675969 6.5090003
1.5800413 -2.0675969 6.5090003
1.4215736 -2.0527163 6.5000005
1.4346982 -2.0542953 6.5050001
1.4471741 -2.0549269 6.5070004
1.4589845 -2.0546112 6.5060005
1.4217924 -2.0410085 6.5010004
1.4349188 -2.0425782 6.5060005
1.4471741 -2.0428922 6.5070004
1.4592087 -2.0428922 6.5070004
1.4710174 -2.0425782 6.5060005
1.3135798 -2.0049376 6.5010004
1.3256035 -2.0049376 6.5010004
1.3378328 -2.0052462 6.5020003
1.3500659 -2.0055544 6.5030003
1.3623027 -2.005863 6.5040002
1.3745432 -2.0061712 6.5050001
1.3867873 -2.0064797 6.5060005
1.3990352 -2.006788 6.5070004
1.4115036 -2.0074048 6.5090003
1.1696562 -1.9213632 6.5030003
1.1827738 -1.9110976 6.5090003
1.1578069 -1.9096296 6.5040002
1.1700159 -1.9099232 6.5050001
1.1459539 -1.8978922 6.5050001
1.1578069 -1.8976004 6.5040002
1.169836 -1.8976004 6.5040002
1.1825922 -1.8987675 6.5080004
1.1096903 -1.8855712 6.5040002
1.1346202 -1.8870208 6.5090003
1.1463063 -1.886441 6.5070004
1.158163 -1.8861511 6.5060005
1.1701958 -1.8861511 6.5060005
1.1827738 -1.8870208 6.5090003
1.0976611 -1.8735421 6.5040002
1.1100315 -1.8741182 6.5060005
0.62823385 -1.620182 6.5010004
0.6164946 -1.6089005 6.5040002
0.64094687 -1.60989 6.5080004
0.48402491 -1.5482785 6.5020003
1.4719218 -2.0679147 6.5100002
1.5566816 -2.0685499 6.5120001
1.5684848 -2.0682323 6.5110002
1.4721478 -2.0561903 6.5110002
1.5207833 -2.0568218 6.5130005
1.532829 -2.0568218 6.5130005
1.5455865 -2.0577691 6.5160003
1.558116 -2.0584009 6.5180001
1.570171 -2.0584009 6.5180001
1.5814978 -2.0574534 6.5150003
1.4839621 -2.0438342 6.5100002
1.4971513 -2.045404 6.5150003
1.5096641 -2.0460317 6.5170002
1.5212502 -2.045404 6.5150003
1.5335351 -2.0457177 6.5160003
1.5462981 -2.0466597 6.5190005
1.5704119 -2.0466597 6.5190005
1.4496205 -2.0101805 6.5180001
1.4237608 -2.0077133 6.5100002
1.4364626 -2.0086386 6.5130005
1.3037585 -1.9721982 6.5120001
1.3158025 -1.9721982 6.5120001
1.3280504 -1.9725012 6.5130005
1.3405076 -1.9731069 6.5150003
1.3525572 -1.9731069 6.5150003
1.3648162 -1.9734097 6.5160003
1.3775015 -1.9743183 6.5190005
1.3045594 -1.9613583 6.5160003
1.3166107 -1.9613583 6.5160003
1.3290699 -1.9619603 6.5180001
1.3413308 -1.9622613 6.5190005
1.1953629 -1.9119785 6.5120001
1.2085193 -1.901685 6.5180001
1.1953629 -1.8999345 6.5120001
1.1953629 -1.8878906 6.5120001
1.1227542 -1.8752705 6.5100002
1.1351432 -1.8758466 6.5120001
1.1470109 -1.8755585 6.5110002
0.65348512 -1.6111269 6.5130005
0.66593963 -1.6000631 6.5170002
0.61706328 -1.5983444 6.5100002
0.60511601 -1.5865479 6.5110002
0.61715811 -1.5865479 6.5110002
0.60539478 -1.5752313 6.5140004
1.510359 -2.0590324 6.5200005
1.5588331 -2.0472875 6.5210004
1.4741827 -2.0228562 6.5200005
1.4869254 -2.0237868 6.5230002
1.4996791 -2.0247176 6.5260005
1.5119805 -2.025028 6.5270004
1.5238187 -2.0247176 6.5260005
1.536124 -2.025028 6.5270004
1.5481957 -2.025028 6.5270004
1.5595503 -2.0240972 6.5240002
1.4623482 -2.0111058 6.5210004
1.474635 -2.0114143 6.5220003
1.4869254 -2.0117226 6.5230002
1.4989897 -2.0117226 6.5230002
1.5117489 -2.0126479 6.5260005
1.5242858 -2.0132647 6.5280004
1.5363593 -2.0132647 6.5280004
1.5481957 -2.0129561 6.5270004
1.3897715 -1.9746211 6.5200005
1.4022603 -1.9752268 6.5220003
1.4143227 -1.9752268 6.5220003
1.4266039 -1.9755297 6.5230002
1.4384476 -1.9752268 6.5220003
1.4500653 -1.9746211 6.5200005
1.4627968 -1.9755297 6.5230002
1.3535953 -1.9625623 6.5200005
1.3662823 -1.9634653 6.5230002
1.3789805 -1.9643683 6.5260005
1.3912636 -1.9646693 6.5270004
1.4031203 -1.9643683 6.5260005
1.4145396 -1.9634653 6.5230002
1.4263852 -1.9631643 6.5220003
1.3055605 -1.9508028 6.5210004
1.3178231 -1.9511019 6.5220003
1.3300894 -1.9514011 6.5230002
1.3423595 -1.9517002 6.5240002
1.3546332 -1.9519994 6.5250001
1.367539 -1.953196 6.5290003
1.4033353 -1.9525977 6.5270004
1.3427711 -1.9402287 6.5260005
1.3548409 -1.9402287 6.5260005
1.2938966 -1.9393368 6.5230002
1.3063612 -1.9399314 6.5250001
1.3184292 -1.9399314 6.5250001
1.3304973 -1.9399314 6.5250001
1.4029052 -1.9399314 6.5250001
1.2818322 -1.9272724 6.5230002
1.2940949 -1.927568 6.5240002
1.3065615 -1.9281589 6.5260005
1.3188334 -1.9284543 6.5270004
1.3309051 -1.9284543 6.5270004
1.3429768 -1.9284543 6.5270004
1.3554637 -1.9290452 6.5290003
1.2452574 -1.9146209 6.5210004
1.2575108 -1.9149145 6.5220003
1.2697679 -1.9152081 6.5230002
1.2818322 -1.9152081 6.5230002
1.2938966 -1.9152081 6.5230002
1.3059608 -1.9152081 6.5230002
1.3180251 -1.9152081 6.5230002
1.3298855 -1.9149145 6.5220003
1.3546332 -1.9157953 6.5250001
1.2209489 -1.9022685 6.5200005
1.2331967 -1.9025604 6.5210004
1.2452574 -1.9025604 6.5210004
1.2577037 -1.9031439 6.5230002
1.2699625 -1.9034356 6.5240002
1.2820288 -1.9034356 6.5240002
1.2936982 -1.9028521 6.5220003
1.3055605 -1.9025604 6.5210004
1.2090756 -1.8904997 6.5210004
1.2220725 -1.8919493 6.5260005
1.2341423 -1.8919493 6.5260005
1.2460213 -1.8916594 6.5250001
1.2820288 -1.8913695 6.5240002
1.2938966 -1.8910795 6.5230002
1.1982999 -1.8321613 6.5280004
1.2103735 -1.8321613 6.5280004
0.69099903 -1.5902029 6.5260005
0.67840898 -1.5889846 6.5210004
1.3804597 -1.9543927 6.5330005
1.3923293 -1.9540935 6.5320005
1.3677485 -1.9414179 6.5300002
1.380671 -1.9426072 6.5340004
1.3923293 -1.9420125 6.5320005
1.3810936 -1.9311134 6.5360003
1.3927556 -1.9305224 6.5340004
1.3681674 -1.9299315 6.5320005
1.1882253 -1.8352486 6.5390005
0.87378395 -1.6659341 6.5390005
0.88587785 -1.6659341 6.5390005
0.74018466 -1.604237 6.5340004
0.70349979 -1.5911777 6.5300002
0.71557707 -1.5911777 6.5300002
0.74007142 -1.5919087 6.5330005
0.75261474 -1.5928833 6.5370002
1.1039054 -1.7874196 6.5410004
1.1161737 -1.7876928 6.5420003
1.1294804 -1.7774932 6.5490003
0.87405121 -1.654346 6.5410004
0.88628423 -1.654599 6.5420003
0.89907032 -1.6558635 6.5470004
0.87458569 -1.6432527 6.5450001
0.88669068 -1.6432527 6.5450001
0.86300778 -1.6321446 6.5490003
0.87485296 -1.6316462 6.5470004
0.88696164 -1.6316462 6.5470004
0.76517284 -1.593858 6.5410004
0.77750808 -1.5943455 6.5430002
0.76587474 -1.5832114 6.5470004
0.77822107 -1.5836951 6.5490003
0.6811139 -1.5226679 6.5470004
0.51174849 -1.4383464 6.5490003
0.48744926 -1.4260162 6.5480003
1.2039903 -1.7923384 6.5590005
1.2039903 -1.7802074 6.5590005
1.1554668 -1.7680765 6.5590005
0.89948231 -1.644508 6.5500002
0.89961964 -1.632643 6.5510001
0.88804543 -1.6215165 6.5550003
0.90016896 -1.6215165 6.5550003
0.814807 -1.5962948 6.5510001
0.82704931 -1.5965384 6.5520005
0.83980763 -1.5977569 6.5570002
0.81542891 -1.5853878 6.5560002
0.82780671 -1.5858715 6.5580001
0.7668106 -1.560899 6.5550003
0.77929056 -1.5616133 6.5580001
0.76692754 -1.5490118 6.5560002
0.77929056 -1.5494844 6.5580001
0.79141957 -1.5494844 6.5580001
0.66941392 -1.5114821 6.5510001
0.68184215 -1.5121744 6.5540004
0.69385791 -1.5119436 6.5530005
0.65759885 -1.5000527 6.5540004
0.65800017 -1.4888391 6.5580001
0.59680849 -1.4753591 6.5520005
1.2050917 -1.769694 6.5650005
0.9988302 -1.660669 6.5660005
1.011282 -1.6611749 6.5680003
0.9862355 -1.6599102 6.5630002
0.9745425 -1.6485252 6.5660005
0.98638582 -1.648023 6.5640001
0.99898231 -1.6487763 6.5670004
0.9749878 -1.6371291 6.5690002
0.98653609 -1.6361321 6.5650005
0.99928653 -1.6371291 6.5690002
0.91340584 -1.6234955 6.5630002
0.90154219 -1.6118481 6.5650005
0.8523246 -1.5984879 6.5600004
0.84044802 -1.5868387 6.5620003
0.85284436 -1.5873224 6.5640001
0.82856405 -1.5751822 6.5640001
0.85323411 -1.5759021 6.5670004
0.7917816 -1.5623277 6.5610003
0.80416125 -1.562804 6.5630002
0.81629956 -1.562804 6.5630002
0.82869029 -1.5632802 6.5650005
0.8412165 -1.5639946 6.5680003
0.85323411 -1.5637565 6.5670004
0.79274708 -1.5156353 6.5690002
0.69491673 -1.5021126 6.5630002
0.70748591 -1.4908824 6.5670004
0.67053795 -1.4776108 6.5620003
0.68340266 -1.479187 6.5690002
0.63441861 -1.4661443 6.5650005
0.67084455 -1.4661443 6.5650005
1.5352603 -1.8939943 6.5750003
1.5469501 -1.8934182 6.5730004
1.5586325 -1.8928422 6.5710001
1.5361943 -1.8829787 6.5790005
1.5481268 -1.8826925 6.5780005
1.5593441 -1.8815477 6.5740004
1.2061931 -1.7591583 6.5710001
1.1820668 -1.7472711 6.5720005
1.1945852 -1.7478027 6.5740004
1.207111 -1.7483345 6.5760002
1.1699119 -1.7351161 6.5720005
1.1820668 -1.7351161 6.5720005
1.1944035 -1.7353802 6.5730004
1.2069274 -1.7359082 6.5750003
1.1584617 -1.7240099 6.5760002
1.1702679 -1.7234855 6.5740004
1.1822467 -1.7232233 6.5730004
1.1940401 -1.722699 6.5710001
1.2065603 -1.7232233 6.5730004
1.1339645 -1.7115872 6.5750003
1.1466479 -1.7123681 6.5780005
1.1589901 -1.7126285 6.5790005
1.183146 -1.7123681 6.5780005
1.1216334 -1.6991682 6.5740004
1.1339645 -1.6994268 6.5750003
1.0482031 -1.6740867 6.5710001
1.0601948 -1.6738319 6.5700002
1.0728357 -1.6745962 6.5730004
1.0853226 -1.6751058 6.5750003
1.0611631 -1.6631982 6.5760002
1.0734886 -1.6634511 6.5770001
1.0859829 -1.663957 6.5790005
1.0117439 -1.6497805 6.5710001
1.0122057 -1.6383752 6.5740004
0.98803878 -1.6264639 6.5750003
1.0005035 -1.6269586 6.5770001
0.86603868 -1.5649471 6.5720005
0.86669755 -1.5539736 6.5770001
0.80550909 -1.5167888 6.5740004
0.81779212 -1.5170195 6.5750003
0.7938332 -1.5055457 6.5780005
0.76961809 -1.4814389 6.5790005
0.69565791 -1.4794122 6.5700002
0.70802462 -1.4798626 6.5720005
0.71996039 -1.4794122 6.5700002
0.70877874 -1.4692709 6.5790005
0.65950525 -1.4557742 6.5730004
1.5614789 -1.8719482 6.5830002
1.3542935 -1.8107969 6.5820003
1.3666744 -1.8110719 6.5830002
1.3796875 -1.8121724 6.5870004
1.3425277 -1.7991699 6.5840001
1.3542935 -1.7986234 6.5820003
1.3664669 -1.7986234 6.5820003
1.3792686 -1.7994431 6.5850005
1.3429356 -1.7875357 6.5860004
1.3544992 -1.7867213 6.5830002
1.3664669 -1.7864499 6.5820003
1.3796875 -1.787807 6.5870004
1.355528 -1.7758939 6.5880003
1.36792 -1.7761635 6.5890002
1.171692 -1.7134094 6.5820003
1.1473452 -1.701236 6.5820003
1.1849446 -1.7027868 6.5880003
1.1226572 -1.6885493 6.5800004
1.1355168 -1.6895758 6.5840001
1.0984846 -1.6766344 6.5810003
1.1111624 -1.6773987 6.5840001
1.1233395 -1.6773987 6.5840001
1.1360341 -1.6781629 6.5870004
1.0988184 -1.6649686 6.5830002
1.1118375 -1.6662332 6.5880003
1.0873034 -1.6537976 6.5870004
1.0994861 -1.6537976 6.5870004
1.099653 -1.6418642 6.5880003
1.1120063 -1.6421134 6.5890002
1.0132836 -1.627948 6.5810003
1.0012641 -1.616022 6.5820003
1.0138994 -1.6167586 6.5850005
0.98939127 -1.6043359 6.5840001
1.0012641 -1.6038486 6.5820003
1.0137454 -1.6043359 6.5840001
1.0263901 -1.605067 6.5870004
1.0385728 -1.605067 6.5870004
1.0509149 -1.6053107 6.5880003
0.97780782 -1.5931261 6.5880003
0.98969179 -1.5926424 6.5860004
1.0012641 -1.5916752 6.5820003
0.98999232 -1.5809416 6.5880003
0.85518301 -1.5308081 6.5820003
0.85596257 -1.5200189 6.5880003
0.84275347 -1.5181732 6.5800004
0.79407454 -1.4938338 6.5800004
0.80722451 -1.4834654 6.5880003
0.74584877 -1.4703876 6.5840001
0.72105622 -1.4694943 6.5800004
0.73333734 -1.4697176 6.5810003
0.68465108 -1.4453745 6.5810003
1.5268062 -1.8742232 6.5910001
1.5387628 -1.8739388 6.5900002
1.5511863 -1.8742232 6.5910001
1.5636137 -1.8623157 6.5920005
1.5760446 -1.8382106 6.5930004
1.4656334 -1.8251859 6.5900002
1.5774789 -1.8276786 6.5990005
1.3929267 -1.8013561 6.5920005
1.4059713 -1.8024491 6.5960002
1.4063976 -1.7907926 6.5980005
1.3933494 -1.7897069 6.5940003
1.344159 -1.7769722 6.5920005
1.3809443 -1.7772417 6.5930004
1.3935606 -1.7777809 6.5950003
1.3451786 -1.7661189 6.5970001
1.3569683 -1.7655834 6.5950003
1.3689581 -1.7653157 6.5940003
1.3815726 -1.7658511 6.5960002
1.3941946 -1.7663865 6.5980005
1.1978561 -1.6916288 6.5920005
1.2098644 -1.6913722 6.5910001
1.1867433 -1.6809654 6.5980005
1.1616327 -1.6799464 6.5940003
1.1980377 -1.6796916 6.5930004
1.2098644 -1.6791821 6.5910001
1.1243633 -1.6667391 6.5900002
1.1621611 -1.6685095 6.5970001
1.1745403 -1.6687624 6.5980005
1.1869231 -1.6690154 6.5990005
1.1987646 -1.6685095 6.5970001
1.2107822 -1.6682566 6.5960002
1.1121751 -1.6545509 6.5900002
1.1248752 -1.6553041 6.5930004
1.1379312 -1.6565595 6.5980005
1.1625135 -1.6568105 6.5990005
1.1745403 -1.6565595 6.5980005
1.0877986 -1.6423626 6.5900002
1.1245339 -1.6426119 6.5910001
1.1377587 -1.6441072 6.5970001
1.1625135 -1.6446056 6.5990005
1.1747183 -1.6446056 6.5990005
1.0889541 -1.631906 6.5970001
1.1004876 -1.6309165 6.5930004
1.1125126 -1.6306691 6.5920005
1.1250458 -1.631164 6.5940003
1.0892843 -1.6201959 6.5990005
1.1258988 -1.6201959 6.5990005
1.051872 -1.6189682 6.5940003
1.0643904 -1.6194593 6.5960002
1.0769162 -1.6199504 6.5980005
1.1009884 -1.6194593 6.5960002
1.1131877 -1.6194593 6.5960002
1.0637449 -1.6062853 6.5920005
1.0765897 -1.60726 6.5960002
1.0889541 -1.6075037 6.5970001
1.1008215 -1.6070163 6.5950003
1.1131877 -1.60726 6.5960002
1.0635836 -1.5938516 6.5910001
1.1013222 -1.5955443 6.5980005
1.113694 -1.5957862 6.5990005
0.9785499 -1.5821414 6.5930004
0.9789952 -1.570662 6.5960002
1.0523506 -1.5709002 6.5970001
0.99029285 -1.5692333 6.5900002
0.97929204 -1.5589353 6.5980005
0.99044317 -1.5572814 6.5910001
0.99134475 -1.5464978 6.5970001
1.0036981 -1.5467323 6.5980005
0.84403425 -1.5082922 6.5900002
0.85687208 -1.5094366 6.5950003
0.85739177 -1.4981472 6.5990005
0.82003093 -1.4845914 6.5930004
0.79552269 -1.4721742 6.5920005
1.5533044 -1.8645757 6.6000004
1.5659856 -1.8407199 6.6020002
1.5671716 -1.8298943 6.6070004
1.5789131 -1.8171244 6.6050005
1.4201057 -1.7804766 6.6050005
1.4068239 -1.7791287 6.6000004
1.407037 -1.7671897 6.6010003
1.4201057 -1.7682606 6.6050005
1.371657 -1.7565763 6.6070004
1.3836672 -1.7563105 6.6060004
1.3956738 -1.7560446 6.6050005
1.4074633 -1.7555128 6.6030002
1.4194607 -1.755247 6.6020002
1.4323215 -1.7560446 6.6050005
1.4451936 -1.7568423 6.6080003
1.408316 -1.7443566 6.6070004
1.4194607 -1.7430366 6.6020002
1.4201057 -1.7316127 6.6050005
1.1504829 -1.6570616 6.6000004
1.187103 -1.6570616 6.6000004
1.1998549 -1.6578147 6.6030002
1.2122507 -1.6580658 6.6040001
1.1504829 -1.6448548 6.6000004
1.1874628 -1.6453533 6.6020002
1.2005818 -1.6465994 6.6070004
1.2129849 -1.6468486 6.6080003
1.1384486 -1.6328955 6.6010003
1.1517031 -1.6343797 6.6070004
1.164099 -1.6346271 6.6080003
1.1260694 -1.6082346 6.6000004
1.0772426 -1.596028 6.6000004
1.0896144 -1.5962698 6.6010003
1.1264107 -1.5965116 6.6020002
1.0656813 -1.5847812 6.6040001
1.0787115 -1.585981 6.6090002
1.0904397 -1.5852611 6.6060004
1.1269225 -1.5850211 6.6050005
1.0902747 -1.5728052 6.6050005
1.0420415 -1.5615343 6.6090002
0.98003417 -1.5479044 6.6030002
1.016363 -1.5474355 6.6010003
1.0053715 -1.5370876 6.6090002
0.85791153 -1.4868431 6.6030002
0.8705191 -1.4875187 6.6060004
1.5688319 -1.8196005 6.6140003
1.5700179 -1.8087342 6.6190004
1.5801084 -1.8062748 6.6100001
1.593779 -1.795678 6.6160002
1.4338396 -1.7701346 6.6120005
1.4589591 -1.7587032 6.6150002
1.3851334 -1.7459408 6.6130004
1.3971529 -1.7456768 6.6120005
1.3855523 -1.7342343 6.6150002
1.3975755 -1.7339722 6.6140003
1.4089555 -1.7329235 6.6100001
1.3739407 -1.7227808 6.6180005
1.3861806 -1.7227808 6.6180005
1.398632 -1.7230412 6.6190004
1.4100212 -1.7219999 6.6150002
1.4106607 -1.7105409 6.6180005
1.4106607 -1.6983008 6.6180005
1.398632 -1.6863157 6.6190004
1.312344 -1.6733149 6.6160002
1.3249806 -1.6738209 6.6180005
1.3115505 -1.6600744 6.6120005
1.3366145 -1.6608276 6.6150002
1.1766765 -1.6351218 6.6100001
1.1892614 -1.6356165 6.6120005
1.2023989 -1.6368535 6.6170001
1.2148206 -1.6371008 6.6180005
1.2266898 -1.6366061 6.6160002
1.1400008 -1.6228967 6.6100001
1.1405182 -1.6114024 6.6130004
1.1412081 -1.600139 6.6170001
1.1413805 -1.5881407 6.6180005
1.0671337 -1.5747101 6.6130004
1.0795276 -1.5749483 6.6140003
1.1412081 -1.5756626 6.6170001
1.0917603 -1.5627156 6.6140003
1.1039928 -1.5504831 6.6140003
1.1291405 -1.5514208 6.6180005
1.0301298 -1.5497798 6.6110005
0.99329829 -1.5373201 6.6100001
1.0183647 -1.5382504 6.6140003
0.99404967 -1.5262486 6.6150002
1.0064362 -1.5264792 6.6160002
0.59004486 -1.305436 6.6120005
0.60291141 -1.3068181 6.6190004
0.52890033 -1.2809782 6.6120005
0.50444251 -1.2687494 6.6120005
1.5824989 -1.7967637 6.6200004
1.534219 -1.7853287 6.6230001
1.5957062 -1.7855983 6.6240005
1.6074718 -1.7850591 6.6220002
1.620453 -1.7858678 6.6250005
1.5231187 -1.774418 6.6280003
1.5346823 -1.7736149 6.6250005
1.5966698 -1.774418 6.6280003
1.6086855 -1.7741503 6.6270003
1.3749787 -1.7118332 6.6230001
1.3865995 -1.7110578 6.6200004
1.3992659 -1.7115747 6.6220002
1.5110883 -1.713384 6.6290002
1.3760167 -1.7008671 6.6280003
1.3870186 -1.6993273 6.6220002
1.3990546 -1.6990707 6.6210003
1.3135341 -1.6870799 6.6220002
1.3261819 -1.6875894 6.6240005
1.3762244 -1.6888633 6.6290002
1.386809 -1.6868252 6.6210003
1.3014832 -1.6750854 6.6230001
1.3386351 -1.6755912 6.6250005
1.3762244 -1.676603 6.6290002
1.3870186 -1.6748325 6.6220002
1.3504802 -1.6628362 6.6230001
1.3637582 -1.6640915 6.6280003
1.3758092 -1.6638404 6.6270003
1.2033074 -1.6258429 6.6220002
1.2276168 -1.6255974 6.6210003
1.1789906 -1.6138391 6.6230001
1.1910601 -1.6135955 6.6220002
1.2034892 -1.6138391 6.6230001
1.216289 -1.6145701 6.6260004
1.2283585 -1.6143265 6.6250005
1.1919594 -1.6025572 6.6270003
1.2040343 -1.6023153 6.6260004
1.2168398 -1.6030408 6.6290002
1.1677984 -1.5907805 6.6290002
1.2532426 -1.5903006 6.6270003
1.1550151 -1.5778058 6.6260004
1.1676222 -1.578282 6.6280003
1.2168398 -1.5785202 6.6290002
1.1422429 -1.5648421 6.6230001
1.0932459 -1.5525929 6.6230001
1.0942363 -1.5417391 6.6290002
1.1051613 -1.5398785 6.6210003
1.0192884 -1.5274022 6.6200004
1.1056621 -1.5283251 6.6240005
0.61571085 -1.2957498 6.6250005
0.62815338 -1.2961409 6.6270003
0.62805861 -1.2836906 6.6260004
1.5848894 -1.7872157 6.6300001
1.5858456 -1.7760243 6.6340003
1.5358405 -1.7626913 6.6300001
1.5990788 -1.7648182 6.6380005
1.6103847 -1.7637547 6.6340003
1.621676 -1.7626913 6.6300001
1.5376937 -1.7525412 6.6380005
1.6108702 -1.7520132 6.6360002
1.6108702 -1.7397399 6.6360002
1.512 -1.7266856 6.6330004
1.5249572 -1.7274666 6.6360002
1.5244975 -1.7146764 6.6340003
1.5249572 -1.70292 6.6360002
1.3523154 -1.6773617 6.6320004
1.364787 -1.6776146 6.6330004
1.4379598 -1.6771088 6.6310005
1.4510987 -1.6781205 6.6350002
1.4254807 -1.6645937 6.6300001
1.2300272 -1.60425 6.6340003
1.1928587 -1.5915004 6.6320004
1.2049428 -1.5912604 6.6310005
1.217207 -1.5912604 6.6310005
1.2296563 -1.5915004 6.6320004
1.2419223 -1.5915004 6.6320004
1.1805928 -1.5792345 6.6320004
1.1930386 -1.5794727 6.6330004
1.2053063 -1.5794727 6.6330004
1.1562353 -1.5672048 6.6330004
1.1688554 -1.5676774 6.6350002
1.217574 -1.5672048 6.6330004
1.2674088 -1.5681499 6.6370001
1.1434501 -1.5542339 6.6300001
1.1434501 -1.5419717 6.6300001
1.0950617 -1.5306324 6.6340003
1.1437951 -1.5301709 6.6320004
1.1071643 -1.5181339 6.6330004
1.1192633 -1.517905 6.6320004
1.1318704 -1.5183628 6.6340003
1.5875189 -1.7656158 6.6410003
1.5634245 -1.7538613 6.6430001
1.5884751 -1.7543893 6.6450005
1.6002833 -1.7538613 6.6430001
1.5261061 -1.7410507 6.6410003
1.5386204 -1.7413129 6.6420002
1.5513717 -1.7418371 6.6440005
1.5636598 -1.7418371 6.6440005
1.5764223 -1.7423615 6.6460004
1.5884751 -1.7420994 6.6450005
1.6005241 -1.7418371 6.6440005
1.5386204 -1.7290285 6.6420002
1.5516052 -1.7298094 6.6450005
1.5638952 -1.7298094 6.6450005
1.5761851 -1.7298094 6.6450005
1.588236 -1.7295491 6.6440005
1.6002833 -1.7292888 6.6430001
1.538852 -1.7170025 6.6430001
1.5523057 -1.7182949 6.6480002
1.5648366 -1.7185533 6.6490002
1.5768968 -1.7182949 6.6480002
1.588236 -1.717261 6.6440005
1.6000423 -1.7167441 6.6420002
1.539547 -1.7054862 6.6460004
1.5887141 -1.7054862 6.6460004
1.5140516 -1.6921753 6.6420002
1.5267955 -1.6926848 6.6440005
1.540242 -1.6939586 6.6490002
1.5894313 -1.6939586 6.6490002
1.5277147 -1.6814084 6.6480002
1.4403452 -1.6676065 6.6420002
1.4539418 -1.6691129 6.6480002
1.5154192 -1.6691129 6.6480002
1.4409958 -1.6560698 6.6450005
1.4409958 -1.6437799 6.6450005
1.4537231 -1.6442746 6.6470003
1.4664578 -1.6324719 6.6490002
1.2812265 -1.5700401 6.6450005
1.2073052 -1.5698038 6.6440005
1.2933218 -1.5698038 6.6440005
1.2190425 -1.5568125 6.6410003
1.2942951 -1.5586879 6.6490002
1.1581528 -1.5452276 6.6440005
1.2195933 -1.5452276 6.6440005
1.1583271 -1.5331703 6.6450005
1.2451057 -1.5340933 6.6490002
1.257403 -1.5340933 6.6490002
1.1456922 -1.5204227 6.6430001
1.0960521 -1.5197361 6.6400003
1.1091673 -1.5085905 6.6450005
1.1214572 -1.5085905 6.6450005
1.1344297 -1.5094986 6.6490002
0.71621233 -1.2879527 6.6480002
0.67922372 -1.2754654 6.6470003
0.69110119 -1.2746978 6.6430001
0.64195621 -1.2624115 6.6430001
0.66693008 -1.2631717 6.6470003
0.67891717 -1.2626016 6.6440005
0.65424246 -1.2501253 6.6430001
1.5532397 -1.7070259 6.6520004
1.565778 -1.7072824 6.6530004
1.5776083 -1.7067692 6.6510005
1.5541737 -1.695742 6.6560001
1.5669547 -1.6962516 6.6580005
1.5787944 -1.695742 6.6560001
1.5161031 -1.6821672 6.6510005
1.5407052 -1.6821672 6.6510005
1.5548743 -1.6841905 6.6590004
1.5792687 -1.6839375 6.6580005
1.5407052 -1.6698661 6.6510005
1.4545979 -1.6575651 6.6510005
1.4684428 -1.6469957 6.6580005
1.2698914 -1.5589223 6.6500001
1.2829618 -1.55986 6.6540003
1.3069855 -1.5591568 6.6510005
1.3198816 -1.55986 6.6540003
1.2702733 -1.5470883 6.6520004
1.2835402 -1.5482512 6.6570005
1.2946844 -1.5468557 6.6510005
1.3200799 -1.547786 6.6550002
1.2219795 -1.5359391 6.6570005
1.2331792 -1.5345547 6.6510005
1.2708461 -1.5354776 6.6550002
1.1597216 -1.5227114 6.6530004
1.1103357 -1.4978768 6.6520004
1.1226386 -1.4978768 6.6520004
1.1356239 -1.4987775 6.6560001
0.76666075 -1.2900838 6.6590004
0.77897662 -1.2900838 6.6590004
0.81592411 -1.2900838 6.6590004
0.82823992 -1.2900838 6.6590004
0.7288366 -1.2885339 6.6510005
1.5676608 -1.6846963 6.6610003
1.5553412 -1.6723769 6.6610003
1.5686022 -1.6733811 6.6650004
1.5799804 -1.6723769 6.6610003
1.5558082 -1.6605557 6.6630001
1.5690728 -1.6615527 6.6670003
1.5804547 -1.6605557 6.6630001
1.5432533 -1.6356637 6.6620002
1.2846971 -1.5373234 6.6630001
1.2974097 -1.5377848 6.6650004
1.3093436 -1.5373234 6.6630001
1.3473235 -1.5384771 6.6680002
1.2361459 -1.5259156 6.6670003
1.2482892 -1.5256867 6.6660004
1.260807 -1.5259156 6.6670003
1.1987942 -1.513131 6.6650004
1.2114846 -1.5135851 6.6670003
1.1995137 -1.5017048 6.6690001
0.84118694 -1.3157027 6.6640005
0.8533839 -1.3155051 6.6630001
0.8658371 -1.3157027 6.6640005
0.87829393 -1.3159001 6.6650004
0.89075452 -1.3160975 6.6660004
0.90335423 -1.3164923 6.6680002
0.84118694 -1.3033775 6.6640005
0.8533839 -1.303182 6.6630001
0.8658371 -1.3033775 6.6640005
0.80445302 -1.2914399 6.6660004
1.5579097 -1.6504588 6.6720004
1.5711911 -1.6514484 6.6760001
1.5833011 -1.6512009 6.6750002
1.5593108 -1.6395921 6.6780005
1.5946903 -1.6378734 6.6710005
1.5588437 -1.6267538 6.6760001
1.5714264 -1.6146483 6.6770005
1.2740926 -1.52706 6.6720004
1.3734288 -1.5277467 6.6750002
1.2120297 -1.5019299 6.6700006
0.91692263 -1.3182693 6.6770005
0.91623604 -1.3049423 6.6720004
1.5730739 -1.6410652 6.6840005
1.5861474 -1.6418018 6.6870003
1.5733092 -1.6289468 6.6850004
1.3511627 -1.5304931 6.6870003
1.3625108 -1.5293489 6.6820002
0.98042715 -1.3206385 6.6890001
1.0050195 -1.320441 6.6880002
1.0297585 -1.320441 6.6880002
1.0169326 -1.3198488 6.6850004
0.93052435 -1.3076804 6.6860003
0.99250162 -1.307876 6.6870003
0.92982846 -1.294346 6.6810002
0.94260806 -1.2949271 6.6840005
0.95568454 -1.2958958 6.6890001
1.5868591 -1.6301652 6.6900005
0.99294692 -1.3208359 6.6900005
1.0424396 -1.3208359 6.6900005
1.0930748 -1.3222179 6.6970005
0.96863472 -1.3090495 6.6930003
0.98086691 -1.3088539 6.6920004
0.96834528 -1.2962834 6.6910005
0.98057371 -1.2960895 6.6900005
1.1319208 -1.3614061 6.7070003
1.1438136 -1.3607972 6.7040005
1.1320896 -1.3492026 6.7080002
1.1443254 -1.3490015 6.7070003
1.1565576 -1.3488004 6.7060003
1.1686118 -1.3483981 6.7040005
1.1806585 -1.3479959 6.7020001
1.0567048 -1.3356005 6.7020001
1.0691001 -1.3356005 6.7020001
1.082141 -1.3363976 6.7060003
1.1062863 -1.3232051 6.7020001
1.1196831 -1.3243897 6.7080002
1.1320896 -1.3243897 6.7080002
1.1572474 -1.3620151 6.7100005
1.1831248 -1.363233 6.7160006
1.1944779 -1.349605 6.7100005
1.1327647 -1.3375933 6.7120004
1.1448373 -1.3371948 6.7100005
1.2085068 -1.3389883 6.7190003
1.2209337 -1.3265616 6.7190003
1.359447 -1.3781122 6.7280002
1.2849773 -1.3409811 6.7290001
1.3480047 -1.391589 6.7330003
1.3600532 -1.3911757 6.7310004
1.3482049 -1.3793412 6.7340002
1.3733178 -1.379546 6.7350001
1.3486053 -1.3672926 6.7360005
1.286696 -1.3552366 6.7380004
1.2983867 -1.3544321 6.7340002
1.3110359 -1.3546332 6.7350001
1.3234923 -1.3546332 6.7350001
1.2229325 -1.3411804 6.7300005
1.2744231 -1.3429739 6.7390003
1.2353797 -1.3287333 6.7300005
1.2485684 -1.3295231 6.7340002
1.2612103 -1.3297205 6.7350001
1.3872145 -1.3809799 6.7420001
1.3373371 -1.3685105 6.7420001
