# .PCD v0.7 - Point Cloud Data file format
VERSION 0.7
FIELDS x y z
SIZE 4 4 4
TYPE F F F
COUNT 1 1 1
WIDTH 779
HEIGHT 1
VIEWPOINT 0 0 0 1 0 0 0
POINTS 779
DATA ascii
-0.77204376 0.072437145 1.3390001
-0.76346189 0.074559294 1.3326668
-0.74838674 0.060951736 1.3590001
-0.82451057 0.052665044 1.4346001
-0.8330369 0.047032069 1.4463335
-0.83489347 0.042382732 1.455
-0.81417125 0.03590747 1.4653335
-0.84353995 0.041263781 1.4630001
-0.84700918 0.032820158 1.4728
-0.85624379 0.026793972 1.4858335
-0.82382101 0.026796512 1.4860001
-0.85334188 0.030794213 1.48
-0.82104909 0.03081502 1.4810001
-0.86406529 0.022808986 1.4950001
-0.83546317 0.017419999 1.5070001
-0.86621886 0.020144625 1.5023333
-0.82991326 0.020140154 1.5020001
-0.87419742 0.01399738 1.5137501
-0.88351786 0.0091665955 1.5250001
-0.87552434 0.0082245823 1.525
-0.88120043 0.011955645 1.5210001
-0.87755829 0.011963505 1.5220001
-0.89186025 0.0063856374 1.5345001
-0.88467199 0.0063849441 1.5343333
-0.87651151 0.0063669113 1.5300001
-0.89626181 0.003576475 1.5470002
-0.88586801 0.0035749339 1.5463334
-0.90261126 0.00071806926 1.5530001
-0.89500427 0.00071887841 1.5547502
-0.91392857 -0.0041011167 1.5650001
-0.92598301 -0.011898003 1.5756668
-0.92228842 -0.0080072666 1.5743333
-0.93440092 -0.01832117 1.5850002
-0.92654526 -0.012749451 1.5846001
-0.87086242 -0.024376672 1.5975001
-0.93228513 -0.018701982 1.5924002
-0.92495763 -0.014900978 1.595
-0.93469578 -0.025966143 1.6043751
-0.92503297 -0.021243753 1.6064001
-0.87620252 -0.025952987 1.6036668
-0.92487526 -0.018511437 1.6015002
-0.93590146 -0.032169316 1.618
-0.92557126 -0.032174286 1.61825
-0.91851509 -0.032189202 1.6190001
-0.88597953 -0.032149434 1.6170001
-0.93218106 -0.027886888 1.6126001
-0.92425132 -0.026111271 1.6133333
-0.91498584 -0.026145143 1.6154166
-0.8859995 -0.027090967 1.6125002
-0.93526524 -0.036999758 1.6235715
-0.92449349 -0.036801279 1.6242499
-0.91520846 -0.034033947 1.6252859
-0.90580064 -0.032915037 1.6252
-0.89411783 -0.034564883 1.625
-0.88776523 -0.03677319 1.6230001
-0.90410143 -0.029212888 1.6200001
-0.91605544 -0.041604552 1.6360002
-0.90257978 -0.041680846 1.6390001
-0.91476429 -0.038460862 1.631
-0.90623885 -0.037037518 1.6346668
-0.89872491 -0.036977097 1.6320001
-0.91442412 -0.045664966 1.6434544
-0.90616471 -0.044814944 1.6427501
-0.67490953 -0.094339021 1.6861668
-0.68510216 -0.10280447 1.69725
-0.68408227 -0.098128855 1.6924
-0.69458568 -0.10667698 1.7090001
-0.69702423 -0.1102234 1.715
-0.70230782 -0.11425485 1.728
-1.1539271 -0.28224838 2.1570001
-1.1484753 -0.28237924 2.158
-1.1531242 -0.2780655 2.1555002
-1.144484 -0.2763921 2.1580002
-1.1367649 -0.27645689 2.1585002
-1.1435108 -0.28532985 2.1622002
-1.135314 -0.28558385 2.1671669
-1.1650198 -0.2774806 2.1665001
-1.154955 -0.27365419 2.1626666
-1.145931 -0.27122003 2.1645002
-1.134887 -0.27467877 2.1647143
-1.1234665 -0.27159595 2.1675
-1.1158582 -0.27420768 2.1670001
-1.1096903 -0.2716586 2.1680002
-1.1151557 -0.29409668 2.1708333
-1.1042941 -0.29441217 2.173167
-1.0992004 -0.29520231 2.1790001
-1.1725472 -0.28499505 2.1780002
-1.1313021 -0.28207177 2.171
-1.1254737 -0.28482994 2.1706002
-1.1149473 -0.28515249 2.1704288
-1.1049427 -0.28453061 2.1744447
-1.1736132 -0.2765584 2.1750002
-1.1320839 -0.27423194 2.1725001
-1.1246113 -0.27738759 2.1710002
-1.1142367 -0.27705315 2.171
-1.1811675 -0.29048422 2.1890001
-1.0930642 -0.29501334 2.1839998
-1.0856953 -0.29444304 2.1883335
-1.1812985 -0.28395802 2.1855001
-1.1007137 -0.28350186 2.1820002
-1.0950432 -0.2857945 2.1841114
-1.0855303 -0.28428143 2.1880002
-1.1803432 -0.27719414 2.1800001
-1.077682 -0.30573303 2.1967502
-1.0811046 -0.29484734 2.1913335
-1.075336 -0.29549021 2.1961112
-1.186299 -0.28669736 2.1910002
-1.07151 -0.30518526 2.2016001
-1.0636973 -0.30493346 2.2056665
-1.0569767 -0.30534819 2.2086668
-1.0703197 -0.294312 2.2025001
-1.0647703 -0.29521543 2.2062001
-1.0549825 -0.3154881 2.2142859
-1.0486636 -0.31470406 2.217
-1.0529382 -0.30501834 2.2122002
-1.0477176 -0.30417609 2.2150002
-1.0444345 -0.31523362 2.2243752
-1.0383369 -0.32449332 2.2336001
-1.0385737 -0.31518987 2.2350001
-0.78095186 -0.36707857 2.2490001
-1.0342262 -0.32468683 2.2435
1.3854812 -0.60777909 2.2546666
1.371437 -0.59641314 2.2590001
-0.79090863 -0.36575615 2.2536666
-0.78503019 -0.36440292 2.2517502
-0.77591735 -0.3655659 2.2525003
-0.76915669 -0.36116016 2.2510002
-1.0311179 -0.33514154 2.2533333
-1.0272316 -0.33429459 2.257
-1.0309819 -0.32562798 2.25
-1.027244 -0.32433757 2.2555001
1.3750781 -0.60323453 2.2650001
1.3847674 -0.60594314 2.266
1.3690746 -0.5951134 2.2620001
1.3761089 -0.59334612 2.2632501
-0.7749939 -0.37580898 2.2640002
-0.77223194 -0.36678404 2.26
-1.0226264 -0.3359918 2.2637501
-1.0181068 -0.33447647 2.2676668
1.3763255 -0.61376119 2.2716668
1.3757324 -0.60851723 2.273
-0.80189753 -0.37520254 2.2730002
-0.77314973 -0.37342608 2.2750001
-1.0076233 -0.34499568 2.2762001
-1.0137291 -0.33510417 2.2755001
1.3775625 -0.61330837 2.283
-1.003548 -0.34488073 2.2850001
-0.97559071 -0.37439334 2.3470001
-0.79022896 -0.42094254 2.3770001
-0.78824627 -0.44513774 2.4250002
-0.78618526 -0.45551369 2.4325001
-0.78875607 -0.46417493 2.4545002
-0.78237689 -0.47261488 2.4630001
-0.78629321 -0.46540368 2.4610002
-0.78171653 -0.47497714 2.4753335
-0.77766156 -0.47759098 2.4770002
-0.77335358 -0.48377836 2.4852502
-0.7752614 -0.47319886 2.4840002
-0.58527774 -0.50216299 2.4966669
-0.57612133 -0.50223005 2.4970002
-0.58576572 -0.4944047 2.4948001
-0.5743224 -0.49500984 2.4932001
-0.56367141 -0.49450928 2.493
-0.55422741 -0.49431232 2.4920001
-0.54720414 -0.49421313 2.4914999
-0.76869822 -0.48518986 2.4925001
-0.77253246 -0.47779578 2.49
-0.64334244 -0.50887805 2.5070002
-0.63626182 -0.50645775 2.5065
-0.62592554 -0.50559926 2.50225
-0.61705095 -0.50450879 2.5006666
-0.5583185 -0.50283343 2.5
-0.76349044 -0.49470344 2.505667
-0.75971425 -0.49526316 2.5085001
-0.63432193 -0.49980393 2.5080001
-0.62626255 -0.49441627 2.5075717
-0.76483738 -0.48482043 2.5025001
-0.75694072 -0.4833762 2.507
-0.73712349 -0.50422537 2.5185001
-0.69301081 -0.50665498 2.5190001
-0.68588674 -0.50655437 2.5185001
-0.67616737 -0.50625271 2.5170002
-0.6665265 -0.50367367 2.5157499
-0.65619409 -0.50463784 2.5136001
-0.64725876 -0.50419605 2.5114
-0.63972479 -0.50040179 2.5110002
-0.76016855 -0.49556026 2.5100002
-0.75477898 -0.49427196 2.51525
-0.74636561 -0.49486107 2.51825
-0.73959976 -0.49733716 2.5190001
-0.66634637 -0.49558678 2.5179999
-0.65583801 -0.49391335 2.5158
-0.64415789 -0.49445066 2.5138001
-0.6350807 -0.49343473 2.5110002
-0.73086178 -0.50472593 2.5210001
-0.72472882 -0.50532615 2.5240002
-0.71560585 -0.505476 2.5247502
-0.70577699 -0.50512546 2.5230002
-0.69676179 -0.50401461 2.5213335
-0.68656719 -0.50239462 2.5210001
-0.67697334 -0.50219536 2.5200002
-0.73464882 -0.4949736 2.5212002
-0.72537464 -0.49643221 2.5262501
-0.71610212 -0.49648157 2.5265002
-0.7063365 -0.49618679 2.5250001
-0.69665164 -0.49594092 2.5237501
-0.68609226 -0.49560133 2.5244
-0.67537916 -0.49574396 2.5227501
-1.2472007 -0.44768313 2.5280001
-1.2573235 -0.44963109 2.539
-1.2481874 -0.44335806 2.5300002
-1.2558379 -0.43502882 2.536
-1.2496675 -0.439199 2.5330002
-1.3037297 -0.45260024 2.5425003
-1.2941087 -0.45409989 2.5430002
-1.2855093 -0.45516083 2.5436668
-1.2757663 -0.4550418 2.5430002
-1.2677131 -0.45468298 2.5410001
-1.3801352 -0.44197324 2.549
-1.3719187 -0.44342911 2.5483334
-1.3636348 -0.44197324 2.549
-1.3532435 -0.44348693 2.5486667
-1.3443818 -0.44419992 2.5482502
-1.3337768 -0.44380748 2.546
-1.3239688 -0.44367698 2.5452499
-1.3151994 -0.44389462 2.5465
-1.3057808 -0.44389465 2.5465002
-1.2957246 -0.44367698 2.5452499
-1.286057 -0.44358936 2.5447502
-1.2747484 -0.4437494 2.5456667
-1.2641734 -0.44569275 2.5433333
-1.2585616 -0.44302353 2.5415001
-1.4060643 -0.43254447 2.549
-1.3966355 -0.43254447 2.549
-1.3866634 -0.43237478 2.5480001
-1.3746108 -0.43464622 2.5475004
-1.3644205 -0.43568739 2.549
-1.3530668 -0.43557367 2.5483334
-1.3443818 -0.43477395 2.54825
-1.335785 -0.43557301 2.5483334
-1.3253996 -0.43708733 2.5480001
-1.3162322 -0.4371731 2.5485001
-1.306294 -0.4346453 2.5475001
-1.2958516 -0.43430406 2.5455
-1.2658632 -0.43605807 2.5420003
-1.4052367 -0.4252221 2.5475001
-1.39554 -0.42513907 2.5470002
-1.3853029 -0.42488915 2.5455
-1.3570954 -0.45157909 2.5500002
-1.4246657 -0.44336036 2.5570002
-1.4138231 -0.44529104 2.5545001
-1.4038233 -0.44511622 2.5535002
-1.3949244 -0.44528961 2.5545001
-1.3847262 -0.44558159 2.551667
-1.3759604 -0.44686288 2.5500002
-1.3641698 -0.44686288 2.5500002
-1.3570954 -0.44686288 2.5500002
-1.424248 -0.43613887 2.5562501
-1.4142445 -0.43524289 2.5510001
-1.4044408 -0.4374876 2.5503335
-1.3935592 -0.4377735 2.552
-1.3853928 -0.43743041 2.5500002
-1.3618116 -0.43271416 2.5500002
-1.3570954 -0.43271416 2.5500002
-1.3335142 -0.43271416 2.5500002
-1.4607046 -0.42460966 2.5580001
-1.452898 -0.42676723 2.5567503
-1.4434401 -0.42676723 2.5567503
-1.4345438 -0.42693415 2.5577502
-1.4234117 -0.42643294 2.55475
-1.4136902 -0.42563981 2.5500002
-1.4384776 -0.45019242 2.569
-1.4613807 -0.44280714 2.5675001
-1.4539741 -0.44272137 2.5670002
-1.4444802 -0.44272137 2.5670002
-1.435678 -0.44457412 2.5640001
-1.4268942 -0.44879052 2.5610001
-1.4670719 -0.4328894 2.5650001
-1.455882 -0.43475047 2.5620003
-1.4464042 -0.43475047 2.562
-1.4361377 -0.43633056 2.562
-1.464214 -0.42730898 2.5600002
-1.4555579 -0.45106864 2.5740001
-1.4449143 -0.45071816 2.572
-1.4743152 -0.44384101 2.5735002
-1.4678425 -0.44332361 2.5705001
-1.4723102 -0.43610802 2.5700002
-0.67557001 -0.59475416 2.7310002
-1.1808615 -0.57950872 2.779
-1.1763822 -0.57343888 2.7745001
-1.177837 -0.58312589 2.7840002
-1.8500497 -0.68406433 3.1680002
-1.8564719 -0.70734525 3.2026665
-1.8560185 -0.71889091 3.2190001
2.1964805 -1.1675792 3.2250001
-1.8565952 -0.71315885 3.2200003
-1.8589014 -0.70808196 3.2240002
2.1945913 -1.1697514 3.2310002
2.2239871 -1.1666572 3.2390001
-1.8575366 -0.7247839 3.2320001
-1.8604102 -0.71093714 3.2370002
-1.8575366 -0.71581656 3.2320001
2.1974213 -1.174458 3.2440002
2.22279 -1.1631751 3.2460001
2.224916 -1.1839147 3.2535
-0.84652662 -0.84652621 3.2635002
-0.83837247 -0.8474341 3.2670002
-0.88363391 -0.84725791 3.2780001
2.217428 -1.196105 3.2870002
-0.83666122 -0.85488248 3.2840002
2.1859868 -1.1971967 3.2900002
-0.90608621 -0.85430938 3.2935002
-0.89944834 -0.85378969 3.2915001
2.2122812 -1.2076705 3.302
-0.92674583 -0.85956818 3.302
2.1861811 -1.201249 3.3180001
2.2100613 -1.200887 3.3170002
2.1865323 -1.1951131 3.3123333
-0.94322538 -0.86654127 3.3170002
-0.93581927 -0.86536616 3.3125
2.2085776 -1.2034212 3.3240001
2.2055323 -1.220837 3.3380001
2.2067301 -1.2263031 3.3445001
-0.84550965 -0.88569939 3.3430002
2.2069829 -1.2223051 3.3590002
-0.84879762 -0.89845306 3.3560002
2.2022421 -1.2248523 3.3660002
2.1757231 -1.2146127 3.3635001
2.1763773 -1.2233334 3.3790002
-0.84761208 -0.90380734 3.3760002
-0.84610569 -0.89596826 3.3700001
-0.84261429 -0.91139913 3.381
-0.8428635 -0.90541369 3.3820002
-0.84081376 -0.9162513 3.3990002
-0.84081376 -0.9099648 3.3990002
2.1987753 -1.2512715 3.404
2.1936922 -1.2438786 3.4010003
2.1540899 -1.2482674 3.4130001
2.1610353 -1.2486331 3.4140003
2.1578462 -1.2541193 3.4290001
2.1645143 -1.2588071 3.4245002
2.1651454 -1.2465037 3.4255002
2.1651149 -1.2660289 3.4355001
2.1889441 -1.2574109 3.4380002
2.1927485 -1.2559479 3.4340003
2.1609159 -1.265975 3.4440002
2.1602886 -1.2592397 3.4430001
2.1863947 -1.2532357 3.4440002
-1.4141183 -0.8784433 3.4480002
-1.405344 -0.87402207 3.4473336
-1.3971605 -0.87780643 3.4455004
-1.4017706 -0.86594021 3.4490001
-1.3898182 -0.88559026 3.4510002
-1.4157588 -0.87307787 3.4520001
-1.3932099 -0.87295145 3.4514999
-1.3898182 -0.87920761 3.4510002
-1.433792 -0.86155498 3.4570003
-1.4167842 -0.86412698 3.4545002
-1.4071107 -0.86235332 3.4516668
-1.4266751 -0.88226485 3.4630001
-1.3876448 -0.88508511 3.4615002
-1.4270871 -0.87611294 3.4640002
-1.3874444 -0.87535417 3.4610002
-1.4270871 -0.86970627 3.4640002
-1.3836129 -0.88544941 3.4755001
-1.4461355 -0.87347227 3.4790001
-1.4382527 -0.87580985 3.4755001
-1.391019 -0.90101928 3.4860001
-1.4567451 -0.89534175 3.4890001
-1.3890238 -0.89328879 3.4810002
-1.4567451 -0.88888884 3.4890001
-1.445653 -0.88521236 3.4830005
-1.3775313 -0.88452238 3.4845002
-1.3893378 -0.90412086 3.4980001
-1.4700723 -0.89559835 3.4900002
-1.4640368 -0.89585495 3.4910002
-1.3865575 -0.89585495 3.4910002
2.110841 -1.2898684 3.5090001
2.1186612 -1.288133 3.5220001
-1.3943328 -0.91161644 3.5270002
-1.3923562 -0.90381014 3.5220001
-1.3959142 -0.91918087 3.5310001
-1.3994174 -0.93568611 3.5565002
-1.3988271 -0.92542851 3.5550001
-1.3984337 -0.91530848 3.5540001
-1.3946019 -0.93357652 3.5610001
-1.3953853 -0.9242143 3.5630002
-1.3942523 -0.93446428 3.5770001
-1.3950319 -0.92505676 3.5790002
-1.3962013 -0.9457069 3.5820003
-1.3946195 -0.94249016 3.5950003
-1.3930677 -0.93479997 3.5910001
-1.3975289 -0.95445299 3.6025002
-1.3964643 -0.95494747 3.6170001
-1.394534 -0.94694704 3.6120002
-1.3995531 -0.96376407 3.6250002
-1.393617 -0.95758766 3.6270001
-1.3920802 -0.94983083 3.6230001
-1.3947698 -0.96509337 3.6300001
1.5458982 -1.303139 3.6460001
1.5467461 -1.2937342 3.6480002
1.5458982 -1.2862817 3.6460001
1.5421098 -1.3022636 3.6530001
1.5366147 -1.2931886 3.6560001
1.5421098 -1.2955074 3.6530001
1.5425321 -1.2857249 3.6540003
-1.3957038 -0.96366006 3.6500001
-1.9243636 -0.92416763 3.6540003
-1.9227837 -0.91665632 3.6510003
-1.4160908 -1.0563368 3.8140001
-1.4172046 -1.0465775 3.8170002
-1.4041281 -1.0447272 3.8102503
-1.4276224 -1.0561213 3.8260002
-1.4279956 -1.0457811 3.8270001
-1.4369485 -1.0613221 3.8320003
-1.4380735 -1.0550601 3.8350003
-1.4373236 -1.0474207 3.8330002
-0.44983408 -1.1953758 3.8760002
-0.46429119 -1.1849303 3.8770003
-0.45676696 -1.1875941 3.8740001
-0.44497636 -1.1856127 3.8753335
-0.49322757 -1.1747785 3.8790002
-0.47504881 -1.1741726 3.8770003
-0.46357265 -1.1723555 3.8710003
-0.45635429 -1.1757839 3.8705001
-0.44701838 -1.1751453 3.8723335
-0.32187396 -1.2137705 3.8890002
-0.31468126 -1.2137705 3.8890002
-0.30717227 -1.2125221 3.8850002
-0.29654503 -1.2131463 3.8870001
-0.32162568 -1.2056471 3.8860002
-0.31435758 -1.2053368 3.8850002
-0.30693507 -1.204406 3.8820002
-0.29627848 -1.2048714 3.8835001
-0.28576335 -1.2059573 3.8870001
-0.47267777 -1.1951747 3.8870001
-0.44312224 -1.1966095 3.8800001
-0.31435758 -1.1945589 3.8850002
-0.30472323 -1.1931545 3.8843336
-0.29620218 -1.1973805 3.8825002
-0.49373618 -1.1831715 3.8830001
-0.48667988 -1.1834762 3.8840003
-0.47572225 -1.1830192 3.8825002
-0.43639562 -1.1834762 3.8840003
-0.50091779 -1.1759899 3.8830001
-0.48617867 -1.1750813 3.8800001
-0.39582631 -1.1983235 3.9090002
-0.58379865 -1.1838641 3.9090002
-0.55487978 -1.1838641 3.9090002
-0.52555734 -1.1829555 3.9060001
-0.58379865 -1.1766344 3.9090002
-0.57583141 -1.1751293 3.9040003
-0.56521738 -1.175581 3.9055002
-0.21563393 -1.2303818 3.9190001
-0.21535882 -1.2215731 3.9140003
-0.36004585 -1.2140239 3.9130001
-0.35280874 -1.2140239 3.9130001
-0.35615402 -1.2058616 3.9100001
-0.65052587 -1.1941408 3.9190001
-0.6426211 -1.192922 3.9150002
-0.63538033 -1.192922 3.9150002
-0.584396 -1.1959321 3.9130001
-0.54445279 -1.1920079 3.9120002
-0.53373629 -1.1959312 3.9130001
-0.52629739 -1.1954741 3.9115
-0.65019393 -1.1862869 3.9170003
-0.6426211 -1.1856812 3.9150002
-0.63538033 -1.1856812 3.9150002
-0.62878132 -1.1868926 3.9190001
-0.59254032 -1.1868926 3.9190001
-0.54459286 -1.1850755 3.9130001
-0.53346348 -1.1844698 3.9110003
-0.65019393 -1.171798 3.9170003
-0.64487058 -1.175727 3.9140003
-0.6349746 -1.1740712 3.9125004
-0.62577873 -1.1737142 3.9153335
-0.21568896 -1.2379458 3.9200001
-0.20881112 -1.2256305 3.9270003
-0.65878117 -1.1959691 3.9250002
-0.62587178 -1.1955121 3.9235001
-0.60456967 -1.1964262 3.9265003
-0.59299392 -1.195055 3.9220002
-0.67372859 -1.1858354 3.9275002
-0.66587073 -1.1847792 3.9240003
-0.65810978 -1.1874983 3.9210002
-0.62216747 -1.184478 3.9230003
-0.61522537 -1.1850829 3.9250002
-0.60529 -1.1857871 3.9233334
-0.67381436 -1.1750886 3.9280002
-0.66621011 -1.1744903 3.9260001
-0.65819371 -1.1767693 3.9215002
-0.20675679 -1.2447919 3.934
-0.20554352 -1.2350912 3.934
-0.68246633 -1.1956829 3.9360003
-0.61600912 -1.1974926 3.9300003
-0.68558502 -1.1838585 3.9330001
-0.19497776 -1.2518666 3.9410002
-0.18418452 -1.2528195 3.9440002
-0.17333072 -1.2534548 3.9460001
-0.19497776 -1.2445776 3.9410002
-0.18409112 -1.2448936 3.9420002
-0.17319895 -1.2452093 3.9430001
-0.16611674 -1.2467883 3.9480002
-0.19497776 -1.2372888 3.9410002
-0.18402153 -1.2371318 3.9405003
-0.1731111 -1.2372888 3.9410002
-0.69132316 -1.2020632 3.9450002
-0.69044691 -1.1932527 3.9400003
-0.77236462 -1.181371 3.9490001
-0.69861943 -1.1874707 3.9450002
-0.77197349 -1.1734726 3.9470003
-0.17368214 -1.263309 3.9540002
-0.16628505 -1.2553607 3.9520001
-0.1592574 -1.2502621 3.9590001
-0.70021325 -1.2048055 3.9540002
-0.70806301 -1.1910827 3.9570003
-0.69950485 -1.1962812 3.9500003
-0.76622337 -1.1831659 3.9550002
-0.7596761 -1.1843625 3.9590001
-0.16662166 -1.265226 3.9600003
-0.15592992 -1.2639529 3.9675002
-0.15579191 -1.255506 3.9640002
-0.71709895 -1.2049477 3.9665003
-0.70913661 -1.2075479 3.9630003
-0.76458818 -1.1936412 3.9655004
-0.71646619 -1.1928887 3.9630003
-0.70859981 -1.1993097 3.9600003
-0.7531141 -1.1855592 3.9630003
-0.74616086 -1.1861575 3.9650002
-0.73553085 -1.1867559 3.967
-0.1453436 -1.2786556 3.9790001
-0.15235737 -1.2684211 3.9700003
-0.14523402 -1.2556307 3.9760001
-0.73333919 -1.2112044 3.9750001
-0.72562218 -1.2105949 3.9730003
-0.75539452 -1.2038525 3.9750001
-0.74436688 -1.2038525 3.9750001
-0.73315471 -1.2035497 3.9740002
-0.72507423 -1.2023383 3.9700003
-0.75463438 -1.1952968 3.9710002
-0.74747819 -1.1955978 3.9720001
-0.73627347 -1.1952968 3.9710002
-0.72507423 -1.1949958 3.9700003
-0.13583793 -1.2840071 3.9880002
-0.12357588 -1.2818692 3.9890001
-0.14538012 -1.271616 3.9800003
-0.13459128 -1.2740123 3.9875002
-0.12351392 -1.2738526 3.9870002
-0.11616909 -1.2741721 3.9880002
-0.14538012 -1.264255 3.9800003
-0.13459221 -1.2666373 3.9875002
-0.12345196 -1.2658433 3.9850001
-0.11605257 -1.2655256 3.9840002
-0.10507716 -1.2664785 3.987
-0.11628561 -1.2828332 3.9920001
-0.10895696 -1.283476 3.9940002
-0.10523437 -1.2757695 3.9930003
-0.10556335 -1.2945797 4.0055003
-0.10174806 -1.2857255 4.0010004
-0.094513267 -1.2879748 4.0080004
-0.087122194 -1.2808815 4.0090003
-0.094359994 -1.2747862 4.0015001
-0.065007694 -1.3057259 4.0170002
-0.094654754 -1.2973269 4.0140004
-0.087274313 -1.2979733 4.0160003
-0.076058008 -1.2966805 4.0120001
-0.064999603 -1.2944183 4.0165005
-0.087165654 -1.2889389 4.0110002
-0.076108061 -1.2864302 4.0147505
-0.057721578 -1.3052524 4.0270004
-0.053995758 -1.2940805 4.0270004
-0.042846955 -1.2947233 4.0290003
-0.050510831 -1.3151524 4.046
-0.05044841 -1.3060533 4.0410004
-0.043027744 -1.3076693 4.046
-0.043080918 -1.32427 4.0510001
-0.043144725 -1.318728 4.0570002
-1.8171014 -1.2372177 4.2950001
-1.8154091 -1.2281291 4.2910004
-1.7513431 -1.2886477 4.3890004
-1.7517422 -1.2970606 4.3900003
-1.7456088 -1.2944736 4.395
-1.7517422 -1.2808219 4.3900003
-1.7408406 -1.3051209 4.4035006
-1.7414335 -1.2933453 4.4050002
-1.7331347 -1.3126125 4.415
-1.7364343 -1.3038561 4.4130001
-1.7368279 -1.2959878 4.414
-1.7058685 -1.3249663 4.4290004
-1.7240084 -1.314991 4.4230003
-1.7181557 -1.3167748 4.4290004
-1.7314055 -1.3062198 4.421
-1.7247881 -1.3074015 4.4250002
-1.7317972 -1.2983367 4.4220004
-1.7200954 -1.3100607 4.434
-1.7122808 -1.3144547 4.4350004
-1.7033098 -1.3138618 4.4330006
-1.636059 -1.3769641 4.5190001
-1.6436892 -1.3680005 4.5170002
-1.6455086 -1.3611513 4.5220003
-1.6375072 -1.3656323 4.5229998
-1.6316633 -1.3803159 4.5300002
-1.6320235 -1.3722405 4.5310001
-1.6338245 -1.3653655 4.5360003
-1.6268685 -1.383363 4.5400004
-1.6198976 -1.3845818 4.5440001
-1.6272268 -1.3752691 4.5410004
-1.6198976 -1.3761777 4.5440001
1.4147069 -1.7721519 4.6570001
1.4239314 -1.772913 4.6590004
1.415922 -1.7650535 4.6610003
1.4251539 -1.7658108 4.6630001
1.3690281 -1.7842779 4.6775002
1.3682965 -1.7703551 4.6750002
1.3772374 -1.7793821 4.6760001
1.3671257 -1.7602013 4.671
1.3760593 -1.769219 4.6720004
1.9654591 -1.8481832 4.697
1.9640346 -1.8552837 4.7040005
1.9621878 -1.8620095 4.71
1.9584537 -1.8492868 4.7220001
1.9017401 -1.8623484 4.7330003
1.9021419 -1.8539864 4.7340002
1.9141266 -1.8746601 4.7420001
1.9516743 -1.8770322 4.7480001
1.9133193 -1.8651028 4.7400002
1.8989857 -1.8594693 4.7480001
1.9149339 -1.8579028 4.7440004
1.9015853 -1.8752055 4.7545004
1.951077 -1.8849387 4.7680001
1.9514861 -1.8765138 4.7690001
1.9455173 -1.8881013 4.776
1.9113039 -1.8979846 4.8010001
1.9121001 -1.8898922 4.8030005
-0.033471368 -1.7025769 4.8260002
-0.024550755 -1.7029297 4.8270001
-0.015636155 -1.7043408 4.8310003
-0.096408546 -1.7017229 4.8490005
-0.042572767 -1.70067 4.8460002
-0.11420353 -1.6996173 4.8430004
-0.10526812 -1.695485 4.8439999
1.8961028 -1.9275175 4.8530002
1.9066486 -1.9246147 4.8570004
1.8949307 -1.9173559 4.8500004
-0.08758457 -1.7045305 4.8570004
-0.078569166 -1.7038286 4.855
-0.065067112 -1.7029512 4.8525
-0.051577993 -1.7020738 4.8500004
-0.033637822 -1.7020738 4.8500004
-0.024693167 -1.7038286 4.855
-0.1144865 -1.6948493 4.855
-0.096428424 -1.6931038 4.8500004
-0.0876026 -1.6958965 4.8580003
-0.078569166 -1.6948493 4.855
-0.065059945 -1.6938019 4.8520002
-0.051599264 -1.6938019 4.8520002
-0.042643048 -1.6945001 4.8540001
1.8910158 -1.9314893 4.8630004
1.8898492 -1.9213092 4.8600001
1.8914046 -1.9138945 4.8640003
1.8944058 -1.9441991 4.8950005
1.8936318 -1.9343551 4.8930001
1.1174165 -1.865383 4.9020004
1.1264828 -1.865383 4.9020004
1.1176445 -1.8566954 4.9030004
1.1267127 -1.8566954 4.9030004
1.1097069 -1.8495115 4.9080005
1.1183283 -1.8487579 4.9060001
-0.12478823 -1.7130021 4.9070001
1.8934408 -1.9525399 4.9160004
1.8945963 -1.9446337 4.9190001
1.1117418 -1.871091 4.9170003
1.1110635 -1.8608609 4.914
1.1283212 -1.8502651 4.9100003
-0.1250934 -1.7262889 4.9190001
1.1042175 -1.8555409 4.9240003
1.1066843 -1.8779407 4.9350004
1.0977795 -1.860063 4.9360003
1.1062359 -1.8680561 4.9330001
-0.13465486 -1.7322549 4.9360003
-0.1438714 -1.7241731 4.9390001
-0.13451846 -1.7213804 4.9310002
1.0988915 -1.8802239 4.9410005
1.0988915 -1.8710855 4.9410005
-0.16223927 -1.7435008 4.9420004
-0.15322293 -1.744912 4.9460001
-0.14401704 -1.7442064 4.9440002
-0.13479127 -1.743148 4.9410005
-0.15331587 -1.7368172 4.9490004
-0.14398791 -1.7347115 4.9430003
-0.15325391 -1.7269658 4.947
-0.090541922 -1.7853 5.0210004
-0.081271753 -1.7856556 5.0220003
1.8496326 -2.0533054 5.1220002
1.8510771 -2.0454283 5.1260004
1.2252414 -1.9741293 5.1255002
1.2346005 -1.9786785 5.1250005
1.2156432 -1.9691998 5.1250005
1.245293 -1.9900968 5.1300001
1.245293 -1.9806088 5.1300001
1.2567377 -1.9836975 5.138
1.235805 -1.971121 5.1300001
1.2457784 -1.9718894 5.1320004
1.3163111 -2.0066009 5.1480002
1.2572269 -1.9939761 5.1400003
1.2677191 -1.9955279 5.1440001
1.2769847 -1.99514 5.1430001
1.2867469 -1.9955279 5.1440001
1.2972686 -1.9970796 5.1480002
1.2677191 -1.986014 5.1440001
1.2774813 -1.9864001 5.1450005
1.2877474 -1.9875584 5.1480002
1.2572269 -1.9749633 5.1400003
1.3275064 -2.0043635 5.1545
1.3369099 -2.0089395 5.1540003
1.3072976 -1.9978554 5.1500001
1.3183566 -1.995414 5.1560001
1.3500997 -2.0143964 5.1680002
1.3384663 -2.0017347 5.1600003
1.3495772 -2.0040624 5.1660004
1.3625519 -2.0186841 5.1790004
1.3609734 -2.006778 5.1730003
1.3710707 -2.0075538 5.1750002
1.4022187 -2.0302207 5.184
1.3723954 -2.0286543 5.1800003
1.3819759 -2.0286543 5.1800003
1.3922279 -2.0248404 5.1824999
1.4019481 -2.0202432 5.1830001
1.3723954 -2.019074 5.1800003
1.3822427 -2.0194638 5.1810002
1.3819759 -2.0094934 5.1800003
1.4139851 -2.0237513 5.1920004
1.8274456 -2.0929925 5.2210002
1.8274456 -2.0833361 5.2210002
1.8257972 -2.1022127 5.2440004
1.8264935 -2.093312 5.2460003
1.8177671 -2.1252015 5.2770004
1.8177671 -2.1154418 5.2770004
1.819145 -2.1072781 5.2810001
1.8148597 -2.1234593 5.2970004
1.815545 -2.1144605 5.2990003
1.8118783 -2.1314769 5.3170004
1.8115375 -2.1212442 5.3160005
1.8057727 -2.1457407 5.3280001
1.8047559 -2.1346838 5.3250003
1.804078 -2.1240373 5.3230004
-0.93249869 -1.8976725 5.4360003
-0.92244482 -1.8976725 5.4360003
-0.91272658 -1.8983707 5.4380002
-0.93249869 -1.8876187 5.4360003
1.7801483 -2.2094038 5.4610004
0.36328617 -2.1717618 5.7350001
0.37363228 -2.1702471 5.7310004
0.38463405 -2.1725192 5.7370005
0.35341722 -2.176306 5.7470002
0.39620915 -2.1778209 5.7510004
1.7162063 -2.4833198 6.0550003
1.7162063 -2.472121 6.0550003
1.7081051 -2.4878311 6.0660005
1.7081051 -2.4766121 6.0660005
1.7033199 -2.4972641 6.0890002
1.7035997 -2.4864109 6.0900002
1.6984497 -2.4953928 6.1120005
0.34346136 -2.3815212 6.1390004
0.37727764 -2.3799696 6.1350002
0.38837096 -2.3784177 6.1310005
0.39990586 -2.3795817 6.1340003
0.41131774 -2.3799696 6.1350002
0.35498884 -2.3826852 6.1420002
0.36640814 -2.3830731 6.1430001
0.4232156 -2.3830731 6.1430001
0.43535528 -2.3873403 6.1540003
0.44717267 -2.389668 6.1600003
1.3033544 -2.5515559 6.2780004
1.3151751 -2.5519621 6.2790003
1.2449018 -2.527528 6.2760005
1.2567095 -2.5279307 6.2770004
1.327422 -2.5531814 6.2820001
1.3392537 -2.5535879 6.2830005
