# .PCD v0.7 - Point Cloud Data file format
VERSION 0.7
FIELDS x y z
SIZE 4 4 4
TYPE F F F
COUNT 1 1 1
WIDTH 1577
HEIGHT 1
VIEWPOINT 0 0 0 1 0 0 0
POINTS 1577
DATA ascii
2.08742 -1.2020863 4.2550001
2.0864387 -1.1936554 4.2530003
2.080039 -1.1866258 4.256
2.0785728 -1.1779234 4.2530003
2.0775952 -1.1655753 4.2510004
2.078084 -1.1540543 4.2520003
2.0790615 -1.1467294 4.2540002
2.0869293 -1.1349258 4.2540002
2.0938122 -1.1225979 4.2520003
2.0667212 -1.4796069 4.2610002
2.0619812 -1.4542389 4.2674999
2.0676913 -1.4053974 4.2630005
2.0706015 -1.395534 4.2690001
2.0681763 -1.3860133 4.2640004
2.0667212 -1.3456345 4.2610002
2.0696313 -1.3396375 4.2670002
2.0701165 -1.3320577 4.2680001
2.0706015 -1.3007878 4.2690001
2.0706015 -1.2928922 4.2690001
2.0701165 -1.2846957 4.2680001
2.0750887 -1.2671245 4.2620001
2.0758193 -1.2557421 4.2635002
2.0832157 -1.2160281 4.2625003
2.0839489 -1.2046289 4.2640004
2.0824826 -1.1959007 4.2610002
2.0819941 -1.1404679 4.2600002
2.0839489 -1.1336524 4.2640004
2.0923257 -1.1260302 4.2650003
2.0576985 -1.4607484 4.2750001
2.0641556 -1.4676244 4.2720003
2.0576985 -1.4528419 4.2750001
2.0576985 -1.4449352 4.2750001
2.063189 -1.4432452 4.27
2.0591424 -1.438037 4.2780004
2.0641556 -1.4360201 4.2720003
2.0653634 -1.4250005 4.2744999
2.0651219 -1.3734542 4.2740002
2.058661 -1.366508 4.2770004
2.0636723 -1.364591 4.2710004
2.0596237 -1.359233 4.2790003
2.0646386 -1.3573271 4.2730002
2.0715716 -1.3250948 4.2710004
2.0715716 -1.3171957 4.2710004
2.0710864 -1.3089899 4.27
2.0675378 -1.2880068 4.2790003
2.0742393 -1.2753879 4.2765002
2.0749667 -1.2639693 4.2780004
2.0804446 -1.2229774 4.2730002
2.0814183 -1.2156432 4.2750001
2.0831223 -1.2047693 4.2785006
2.0814183 -1.1919233 4.2750001
2.0804446 -1.1834627 4.2730002
2.0794709 -1.1750096 4.2710004
2.0804446 -1.1676569 4.2730002
2.0799577 -1.1594826 4.2720003
2.0809314 -1.1521206 4.2740002
2.0828788 -1.1452867 4.2780004
2.0878587 -1.1278783 4.2720003
2.0610678 -1.4948186 4.2820001
2.0610678 -1.4710599 4.2820001
2.056025 -1.4493291 4.2880001
2.0601051 -1.4307934 4.2800002
2.0620303 -1.4242073 4.2840004
2.0662291 -1.4164493 4.2845001
2.0694704 -1.3842678 4.283
2.0605865 -1.3757037 4.2810001
2.0659893 -1.3528979 4.2840004
2.0718865 -1.3462305 4.2880001
2.0723696 -1.3148144 4.289
2.0680211 -1.2962236 4.2800002
2.0694704 -1.2812893 4.283
2.07092 -1.2742599 4.2860003
2.07092 -1.266333 4.2860003
2.0725923 -1.2551764 4.2839999
2.0748818 -1.2266982 4.2860003
2.078362 -1.2184868 4.2850003
2.0858002 -1.1350044 4.2840004
2.0951896 -0.92568928 4.2870002
2.0942123 -0.91733229 4.2850003
2.0215445 -1.9062546 4.2990003
2.0579431 -1.4983095 4.2920003
2.0584226 -1.4668989 4.2930002
2.0574636 -1.4582794 4.2910004
2.0551662 -1.4435835 4.2945004
2.058902 -1.4354736 4.2940001
2.0663624 -1.4113196 4.2930002
2.0682878 -1.39674 4.2970004
2.06359 -1.3843324 4.2955003
2.0593815 -1.372259 4.2950001
2.0598609 -1.3646331 4.296
2.0678065 -1.3447685 4.2960005
2.0733361 -1.3352671 4.2910004
2.0733359 -1.3233638 4.2910004
2.0692503 -1.3178799 4.2990003
2.0733359 -1.3074913 4.2910004
2.0735776 -1.2163651 4.2915001
2.0807872 -1.2119743 4.2900004
2.0762351 -1.2060045 4.2970004
2.0817573 -1.2046012 4.2920003
2.0817573 -1.1966631 4.2920003
2.0772014 -1.1827128 4.2990003
2.0817573 -1.184756 4.2920003
2.0772014 -1.1747618 4.2990003
2.0812721 -1.1725757 4.2910004
2.0772014 -1.1668108 4.2990003
2.0812721 -1.1646395 4.2910004
2.0822423 -1.1572423 4.2930002
2.0834548 -1.145999 4.2954998
2.0921297 -0.9357959 4.2970004
2.0149984 -1.8996284 4.302
2.0482521 -1.447113 4.3050003
2.0562141 -1.4391509 4.3050003
2.063457 -1.4267082 4.3035002
2.0660942 -1.4006406 4.309
2.0646558 -1.3917015 4.3060002
2.0636969 -1.3592141 4.3040004
2.0702131 -1.3344024 4.3010001
2.0702131 -1.3264477 4.3010001
2.0697317 -1.3102336 4.3000002
2.0706944 -1.3028865 4.302
2.0702131 -1.294629 4.3010001
2.0706944 -1.2869734 4.302
2.0704536 -1.2748909 4.3015003
2.0702131 -1.2628101 4.3010001
2.0716572 -1.2318499 4.3040004
2.0706944 -1.223321 4.302
2.0711758 -1.2156469 4.303
2.0735824 -1.205107 4.3080001
2.0776846 -1.1949172 4.3000002
2.0784094 -1.1555544 4.3015003
2.0791342 -1.1440212 4.303
2.083837 -1.1364589 4.3045001
2.0895178 -1.1294152 4.3080001
2.0890326 -0.93797368 4.3070002
2.0940771 -0.91280288 4.3010001
2.0201507 -1.8965088 4.3130002
2.0511067 -1.4411566 4.3110003
2.0609906 -1.4345132 4.3150001
2.065217 -1.4067409 4.3155003
2.0624235 -1.3955798 4.3180003
2.0614681 -1.386951 4.316
2.0612292 -1.3748176 4.3155003
2.0670533 -1.3534514 4.3110003
2.0684917 -1.3464146 4.3140001
2.0704095 -1.2917598 4.3180003
2.0656962 -1.2833278 4.3165002
2.0654576 -1.2751967 4.316
2.0659361 -1.2675078 4.3170004
2.070889 -1.220167 4.3190002
2.070889 -1.2121791 4.3190002
2.070889 -1.2041911 4.3190002
2.0750265 -1.1939874 4.3110003
2.0755076 -1.1862892 4.3120003
2.0762296 -1.1747347 4.3135004
2.0783958 -1.1639814 4.3180003
2.078877 -1.144281 4.3190002
2.0844491 -1.1309882 4.3140001
2.0858986 -1.1237904 4.3170004
2.093883 -0.93216717 4.3170004
2.1004066 -0.93151939 4.3140001
2.095202 -0.92300546 4.3115005
2.0577679 -1.4338346 4.3249998
2.0596709 -1.4231546 4.329
2.0587194 -1.4144943 4.3270001
2.0582435 -1.4061664 4.3260002
2.057292 -1.3975191 4.3240004
2.0575299 -1.3856829 4.3245001
2.0582435 -1.3741627 4.3260002
2.059195 -1.3667933 4.3280001
2.0638564 -1.3645827 4.3210001
2.0662446 -1.3541594 4.3260002
2.0676775 -1.3030571 4.329
2.0720878 -1.3047963 4.3214998
2.0648117 -1.2932557 4.3230004
2.0742455 -1.2381465 4.3260002
2.0676775 -1.2229922 4.329
2.0728071 -1.2292925 4.3230004
2.0657668 -1.213863 4.3250003
2.0657668 -1.205864 4.3250003
2.0652893 -1.1975878 4.3240004
2.0713685 -1.19648 4.3200002
2.0652893 -1.1895906 4.3240004
2.0725675 -1.1851794 4.3225002
2.0752044 -1.1746818 4.3280001
2.0793583 -1.1565307 4.3200002
2.0798397 -1.1328233 4.3210001
2.0798397 -1.1248317 4.3210001
2.0836904 -0.95077133 4.329
2.0603848 -1.3555684 4.3305006
2.0651033 -1.3440204 4.3320003
2.0644288 -1.3381672 4.3390002
2.0683937 -1.3155229 4.3305006
2.0630014 -1.2971448 4.3360004
2.0610983 -1.2879361 4.3320003
2.0610981 -1.2759171 4.3320003
2.0707819 -1.2448734 4.3355002
2.0714984 -1.2332735 4.3370004
2.0644288 -1.2017423 4.3390002
2.0644288 -1.1937174 4.3390002
2.0681551 -1.1832329 4.3300004
2.0700655 -1.1763103 4.3340001
2.0795197 -1.1650916 4.3370004
2.0785608 -1.1525289 4.335
2.0747881 -1.1446433 4.3355002
2.0780814 -1.1362315 4.3340001
2.0846531 -0.95922077 4.3310003
2.0582995 -1.4036598 4.3430004
2.0573516 -1.3869561 4.3410001
2.0601952 -1.3808333 4.3470001
2.0611432 -1.3734251 4.349
2.0587735 -1.3638119 4.3440003
2.0578256 -1.3551534 4.342
2.0578256 -1.3471229 4.342
2.0601952 -1.3406343 4.3470001
2.0663319 -1.3313683 4.3430004
2.0672834 -1.3159093 4.3450003
2.0663319 -1.3072712 4.3430004
2.0601952 -1.2923957 4.3470001
2.0597212 -1.2840604 4.3460002
2.0663319 -1.2148997 4.3430004
2.0677593 -1.1835845 4.3460002
2.0738866 -1.170451 4.342
2.0757971 -1.1634914 4.3460002
2.0743642 -1.1546558 4.3430004
2.0743642 -1.1385911 4.3430004
2.0823967 -1.1305586 4.3430004
2.0819173 -0.96165705 4.342
2.0497584 -1.3685212 4.3590002
2.0568764 -1.3678932 4.3570004
2.0483479 -1.3554957 4.3559999
2.0552239 -1.3547181 4.3535004
2.0564044 -1.34341 4.3560004
2.0625648 -1.3341273 4.3520002
2.0649345 -1.3114853 4.3570004
2.0568764 -1.303427 4.3570004
2.0620911 -1.301632 4.3510003
2.05546 -1.2944769 4.3540001
2.05546 -1.286424 4.3540001
2.0564044 -1.2789586 4.3560004
2.0706139 -1.2536371 4.3520002
2.0706139 -1.2294899 4.3520002
2.0649345 -1.2067276 4.3570004
2.0651715 -1.1947768 4.3575001
2.0725172 -1.174225 4.3560004
2.0739446 -1.1669717 4.3590002
2.0729928 -1.1543489 4.3570004
2.0781853 -1.1326412 4.3510003
2.084363 -0.99686903 4.3555002
2.0820065 -0.98960811 4.3590002
2.0786631 -0.95582277 4.3520002
2.050699 -1.344952 4.3610001
2.0563786 -1.3379593 4.3645
2.0635047 -1.325243 4.3625002
2.0597088 -1.3132913 4.3630004
2.0692 -1.2576698 4.3660002
2.0706217 -1.2342926 4.3690004
2.0651598 -1.2253702 4.3660002
2.0644498 -1.216877 4.3645
2.060653 -1.2049068 4.3650002
2.061125 -1.1930704 4.3660002
2.0642138 -1.1844528 4.3640003
2.0653977 -1.1770554 4.3664999
2.069674 -1.1691134 4.3670001
2.070148 -1.1613024 4.368
2.0748961 -1.1433101 4.3610001
2.0767992 -1.1362857 4.3650002
2.0763233 -0.99881446 4.3640003
2.0834394 -0.96608657 4.362
2.056812 -1.3327819 4.3740001
2.0582228 -1.3256007 4.3770003
2.0572822 -1.3169034 4.375
2.0558715 -1.3079144 4.3720002
2.0561066 -1.295933 4.3725004
2.0577526 -1.2848307 4.3760004
2.0639577 -1.2553533 4.3720002
2.065846 -1.2443637 4.3760004
2.0644298 -1.2354226 4.3730001
2.0591633 -1.1804249 4.3790002
2.0634856 -1.1701843 4.3710003
2.0634856 -1.1621001 4.3710003
2.066318 -1.1556 4.3770003
2.0720437 -1.1542799 4.3720002
2.0748873 -1.1477669 4.3780003
2.079654 -0.9923324 4.3710003
2.0882156 -0.98447341 4.3720002
2.0896485 -0.9770574 4.375
2.0825086 -0.96940875 4.3770003
2.0763228 -0.95628029 4.3725004
2.0610442 -1.2625669 4.3830004
2.0629251 -1.2556053 4.3870001
2.0638657 -1.2480603 4.3890004
2.0619845 -1.2347596 4.3850002
2.0610442 -1.2220351 4.3830004
2.0605741 -1.2136517 4.3820004
2.0610442 -1.2058223 4.3830004
2.0610442 -1.1977159 4.3830004
2.0601037 -1.1890668 4.381
2.0596335 -1.1725937 4.3800001
2.0601037 -1.1647587 4.381
2.0633953 -1.1585041 4.388
2.0696225 -1.1493399 4.3840003
2.0734379 -1.1411016 4.3835001
2.073674 -1.003392 4.3839998
2.0796266 -0.99619186 4.388
2.0853634 -0.98695034 4.3830004
2.0777309 -0.97095913 4.3840003
2.0867906 -0.97951394 4.3860002
2.0758352 -0.96197236 4.3800001
2.0165381 -1.8012784 4.3920002
2.01562 -1.7923387 4.3900003
2.0179157 -1.7862515 4.395
2.0599637 -1.2668878 4.3980002
2.0594952 -1.2340707 4.3970003
2.0590267 -1.2256596 4.3960004
2.0594952 -1.2178061 4.3970003
2.0599637 -1.205882 4.3980002
2.0590267 -1.193138 4.3960004
2.05809 -1.1844684 4.3940001
2.0576217 -1.176074 4.3930001
2.0585585 -1.1684809 4.395
2.0671573 -1.1524858 4.3960004
2.0680978 -1.1448761 4.3980002
2.0733993 -1.1351912 4.3920002
2.0680978 -1.0147303 4.3980002
2.0733993 -0.99709994 4.3920002
2.0848398 -0.9905532 4.3990002
2.0810485 -0.98063064 4.3910003
2.0748155 -0.95713824 4.395
2.0080347 -1.8082505 4.4090004
2.0139027 -1.8061999 4.4040003
2.0071237 -1.7992795 4.4070001
2.013674 -1.793776 4.4035001
2.0555618 -1.265116 4.4060001
2.0623055 -1.2561121 4.4030004
2.056495 -1.2453105 4.408
2.0618372 -1.2436155 4.4020004
2.0541623 -1.2357546 4.4030004
2.0536957 -1.2273325 4.4020004
2.054162 -1.2153953 4.4030004
2.0550952 -1.2037277 4.4050002
2.0536957 -1.1947664 4.4020004
2.0527625 -1.1860858 4.4000001
2.0532291 -1.1741459 4.401
2.0555618 -1.1632565 4.4060001
2.0609004 -1.1616724 4.4000001
2.0641792 -1.1553698 4.4070001
2.070684 -1.1340909 4.4035006
2.0699787 -1.1214929 4.4020004
2.0713892 -1.0041239 4.4050002
2.0771761 -0.99077839 4.4000001
2.0785923 -0.98331052 4.4030004
2.0785923 -0.97516716 4.4030004
2.0785923 -0.96702385 4.4030004
2.0713894 -0.95116895 4.4050002
2.0723298 -0.94345009 4.4070001
1.9790012 -1.9830858 4.4170003
1.9880702 -1.9839838 4.4190001
2.0098565 -1.7935673 4.4130001
2.0578945 -1.2543162 4.4110003
2.0534539 -1.2484182 4.4190001
2.0527568 -1.2357397 4.4175005
2.0525243 -1.2233454 4.4170003
2.0534539 -1.2157264 4.4190001
2.0520597 -1.1944835 4.4160004
2.0520597 -1.1822314 4.4160004
2.0534539 -1.1748617 4.4190001
2.0588276 -1.1569427 4.4130001
2.0647354 -1.1463188 4.414
2.0674577 -1.018422 4.414
2.0760918 -0.994156 4.4150004
2.0760918 -0.96149379 4.4150004
2.0679262 -0.95332825 4.4150004
2.0688629 -0.94559085 4.4170003
1.9843777 -1.9802819 4.4290004
2.0071378 -1.8229966 4.4250002
2.0057769 -1.8135822 4.4220004
2.0057769 -1.8054037 4.4220004
2.0539186 -1.2078267 4.4200001
2.0494463 -1.1936337 4.428
2.056242 -1.1682727 4.4250002
2.0625598 -1.1426867 4.421
2.0620933 -1.0198063 4.4200001
2.0721416 -1.012547 4.4240003
2.0740151 -1.0052729 4.428
2.0798535 -0.98777711 4.4230003
2.0807941 -0.98003972 4.4250002
2.0803239 -0.971636 4.4240003
1.9852737 -1.9483956 4.4310002
1.9934689 -1.9483956 4.4310002
2.0098591 -1.8008831 4.4310002
2.0444837 -1.1955205 4.4350004
2.0463276 -1.1883889 4.4390001
2.0526862 -1.1832131 4.4350004
2.0590301 -1.1616617 4.4310002
2.0594947 -1.1537269 4.4320002
2.0618181 -1.1468222 4.4370003
2.0618181 -1.0319349 4.4370003
2.0690913 -1.0150646 4.4350004
2.0782306 -0.96628493 4.4370003
2.0777624 -0.94145399 4.4360003
2.0850263 -0.94102955 4.434
1.9768816 -1.9974527 4.4490004
1.9742156 -1.9865416 4.4430003
1.982433 -1.9783243 4.4430003
2.0495546 -1.18204 4.4460001
2.0587032 -1.1743451 4.4480004
2.064374 -1.1359179 4.4425001
2.0664651 -1.0507101 4.447
2.0632122 -1.0408444 4.4400001
2.0646064 -1.025113 4.4430003
2.0723572 -1.0084513 4.4420004
2.0796359 -0.99978542 4.4400001
2.0810411 -0.97580898 4.4430003
2.0751565 -0.96045393 4.4480004
2.0728238 -0.95115691 4.4430003
2.0732901 -0.94315183 4.4440002
2.0664651 -0.91911429 4.447
1.9713082 -2.0001466 4.4550004
2.0546255 -1.1767213 4.4570003
2.0610173 -1.1674294 4.4530001
2.0617118 -1.1554643 4.4545002
2.0624058 -1.1434917 4.4560003
2.0619431 -1.1349956 4.4550004
2.0706472 -1.019871 4.4560003
2.0770226 -1.0024875 4.4520001
2.0628686 -0.98712701 4.4570003
2.0779555 -0.98646253 4.454
2.0628686 -0.97888374 4.4570003
2.0770226 -0.97778559 4.4520001
2.0760894 -0.96911609 4.4500003
2.0720413 -0.95458221 4.4590001
2.0770226 -0.93661571 4.4520001
2.0747662 -0.92921585 4.4560003
2.0802882 -0.9215945 4.4590001
2.0697179 -0.89584804 4.454
1.9757332 -1.9881202 4.4650002
1.9822137 -1.9863391 4.4610004
2.0587745 -1.1708376 4.4660001
2.0583134 -1.1623174 4.4650002
2.0578525 -1.1538008 4.4640002
2.0578525 -1.1455448 4.4640002
2.0569303 -1.136779 4.4620004
2.0665715 -1.046705 4.4650002
2.0668027 -1.0344324 4.4654999
2.0734353 -1.0129918 4.4620004
2.0546453 -1.00564 4.4660001
2.0684228 -1.0063156 4.4690003
2.0651829 -0.99648684 4.4620004
2.0748293 -0.99715686 4.4650002
2.0739 -0.98845583 4.4630003
2.0633645 -0.97281826 4.467
2.0732031 -0.9757449 4.4615002
2.075294 -0.96434063 4.4660001
2.072506 -0.94654751 4.46
2.0739 -0.93892986 4.4630003
2.0670342 -0.92304128 4.4660001
2.0651829 -0.90570956 4.4620004
2.0564833 -1.1576779 4.4790001
2.0560241 -1.1408553 4.4780002
2.0564833 -1.1328262 4.4790001
2.0610795 -1.0439761 4.4710002
2.0615404 -1.031804 4.4720001
2.0649824 -1.0231898 4.4705
2.0647521 -1.0148081 4.4700003
2.0647671 -0.90087634 4.4790001
2.0693483 -0.89926732 4.4710002
1.9645 -2.0059912 4.4865003
1.9740847 -1.9947991 4.48
2.0569425 -1.1496506 4.48
2.0601563 -1.0269662 4.487
2.0610747 -0.97760946 4.4890003
2.0758281 -0.955998 4.4850006
2.073514 -0.93422061 4.48
2.0666113 -0.92655486 4.4830003
2.0684552 -0.91908288 4.487
1.9728197 -2.0019236 4.4960003
2.0074198 -1.6953856 4.4990001
2.0157406 -1.6121764 4.4990001
2.0143964 -1.6027861 4.4960003
2.0152926 -1.59518 4.4980001
2.047658 -1.1537565 4.4960003
2.0541441 -1.15273 4.4920001
2.0485687 -1.1459507 4.4980001
2.0546014 -1.1446768 4.493
2.0490243 -1.1378845 4.4990001
2.0546014 -1.136367 4.493
2.0633705 -1.0202566 4.4940004
2.0712211 -0.93693149 4.493
2.069838 -0.91139311 4.4900002
1.966689 -2.0041497 4.5010004
1.9767689 -1.9975989 4.5050001
2.0078659 -1.7040851 4.5
2.0087583 -1.6881896 4.5020003
2.019325 -1.5566932 4.5070004
2.0267608 -1.4726824 4.5050001
2.025861 -1.4637003 4.5030003
2.0272107 -1.4563415 4.506
2.0285604 -1.4489717 4.5090003
2.0654008 -0.92328191 4.5075006
2.0644836 -0.91453934 4.5054998
2.0605462 -0.88963926 4.506
1.9640207 -2.0099382 4.5140004
1.9736933 -1.9945494 4.5106668
2.0138896 -1.6048522 4.5135002
2.0136664 -1.5921528 4.513
2.0211172 -1.4829868 4.5110002
2.020669 -1.4743168 4.5100002
2.0211172 -1.4663006 4.5110002
2.0231333 -1.4552348 4.5155001
2.0266318 -1.4422299 4.5139999
2.0632899 -0.94923854 4.5120001
2.0718646 -0.94517034 4.5124998
2.0572221 -0.93358207 4.5170002
2.0725532 -0.932962 4.5140004
1.9670663 -2.0214167 4.5210004
2.0199132 -1.4966196 4.5270004
2.0185745 -1.4872606 4.5240002
2.0194669 -1.4795473 4.526
2.0203593 -1.4718266 4.5280004
2.0255976 -1.4361048 4.5210004
2.0594993 -0.95134234 4.5220003
2.0594993 -0.94297892 4.5220003
2.0678627 -0.94297892 4.5220003
2.0701492 -0.93564886 4.5270004
2.0594993 -0.89279819 4.5220003
1.9722875 -2.035166 4.533
2.0084777 -1.5929306 4.539
2.0230365 -1.4653912 4.5340004
2.063143 -0.96140367 4.5300002
2.0583935 -0.89595717 4.5380001
1.9704024 -2.0419004 4.5480003
1.9642489 -2.031477 4.5434999
2.0098052 -1.6023839 4.5420003
2.0098052 -1.585583 4.5420003
2.0098052 -1.5771825 4.5420003
2.0182056 -1.5015786 4.5420003
2.0177612 -1.4928493 4.5410004
1.9645792 -2.0445943 4.5540004
2.0137875 -1.5045539 4.5510001
2.013345 -1.4958081 4.5500002
2.0164425 -1.4854661 4.5570002
2.029314 -1.3240166 4.5670004
2.027981 -1.3147057 4.5640001
2.0255136 -1.305895 4.5775003
2.0270624 -1.3196027 4.5810003
2.0266199 -1.2939025 4.5800004
2.0275049 -1.2859931 4.5820003
2.0279474 -1.2777976 4.5830002
2.0268412 -1.2643936 4.5805006
2.0275049 -1.2520955 4.5820003
2.0297172 -1.2449781 4.5870004
2.0247588 -1.3151371 4.5950003
2.0251994 -1.306923 4.5960002
2.0254197 -1.294313 4.5965004
2.0265214 -1.2822585 4.5990005
2.0265214 -1.2737527 4.5990005
2.0265214 -1.2652469 4.5990005
2.033036 -1.234266 4.5945005
2.0206482 -1.3179992 4.605
2.0193319 -1.3001179 4.6020002
2.0202096 -1.3091979 4.6040001
2.0202096 -1.2921677 4.6040001
2.0210872 -1.2842102 4.6060004
2.0210872 -1.2756914 4.6060004
2.0219646 -1.2677228 4.6080003
2.0274026 -1.2572875 4.6010003
2.0287247 -1.2453337 4.6040001
2.0300465 -1.2333651 4.6070004
2.0300465 -1.2248445 4.6070004
2.0291653 -1.2157958 4.605
2.0253437 -1.207541 4.6059999
2.0253446 -1.1947613 4.6060004
2.0304871 -1.1824977 4.6080003
2.0178115 -1.304638 4.618
2.0178115 -1.2960969 4.618
2.0232811 -1.2557552 4.6110001
2.0241587 -1.2435031 4.6130004
2.025475 -1.2357745 4.6160002
2.0245974 -1.2267056 4.6140003
2.0232811 -1.2173798 4.6110001
2.0241587 -1.1837809 4.6130004
2.0195594 -1.3228648 4.6220002
2.0186856 -1.3137476 4.6200004
2.0191226 -1.2841182 4.6210003
2.0213072 -1.2726749 4.6260004
2.022181 -1.2047491 4.6280003
2.0213072 -1.1956728 4.6260004
2.0213072 -1.1871169 4.6260004
2.0287659 -1.1736462 4.6235003
2.0204332 -1.1438432 4.6240001
2.0184076 -1.3105707 4.6390004
2.0166671 -1.3008683 4.6350002
2.0171022 -1.2925746 4.6360002
2.0184076 -1.2848312 4.6390004
2.0230548 -1.2652122 4.6300001
2.0243657 -1.2574632 4.6330004
2.0250211 -1.2450125 4.6345005
2.0243657 -1.2317569 4.6330004
2.0234919 -1.2226602 4.631
2.0239289 -1.2143573 4.6320004
2.0230548 -1.1538906 4.6300001
2.0179725 -1.1473063 4.638
2.0179725 -1.1387284 4.638
2.0165014 -1.3164153 4.6445003
2.0124273 -1.3036748 4.6450005
2.0124273 -1.2950839 4.6450005
2.0128605 -1.28677 4.6460004
2.0210183 -1.2005836 4.6450005
2.020148 -1.1914794 4.6430001
2.0210183 -1.1834017 4.6450005
2.0141602 -1.1586258 4.6490002
2.020148 -1.1571305 4.6430001
2.0137269 -1.14978 4.6480002
2.0167189 -1.1318561 4.6450005
2.0158932 -1.280103 4.6530004
2.0180595 -1.2728635 4.658
2.0180595 -1.2125586 4.658
2.0236287 -1.2107364 4.651
2.0163264 -1.2029098 4.6540003
2.0158932 -1.1940455 4.6530004
2.0150268 -1.1849303 4.651
2.0145934 -1.1416746 4.6500001
2.0202258 -1.2483572 4.6630001
2.0197923 -1.2351558 4.6620002
2.0202258 -1.2224845 4.6630001
2.0146213 -1.2934171 4.6700001
2.0180724 -1.2437209 4.6780005
2.0185037 -1.235333 4.6790004
2.0185037 -1.2266791 4.6790004
2.0176411 -1.2175047 4.677
2.0167782 -1.2083377 4.6750002
2.0159154 -1.1948576 4.6730003
2.0163467 -1.1648563 4.6740003
2.0241249 -1.1211535 4.6720004
2.0189352 -1.1576959 4.6800003
2.019798 -1.140872 4.6820002
2.0202293 -1.1497768 4.6830001
2.0228179 -1.1339053 4.6890001
2.0288906 -1.0978096 4.6830001
2.021955 -0.9860552 4.6870003
2.0171523 -1.2137655 4.6960001
2.0175817 -1.2053368 4.697
2.018441 -1.1710868 4.6990004
2.0258374 -1.1095423 4.6960001
2.0232491 -0.9780122 4.6900001
1.9605215 -1.8430207 4.7060003
2.0114608 -1.267764 4.7030001
2.0110331 -1.258798 4.7020001
2.0106056 -1.2454886 4.7010002
2.0110331 -1.2327089 4.7020001
2.0114608 -1.224273 4.7030001
2.0123162 -1.2160916 4.7050004
2.0135994 -1.2081596 4.7080002
2.0172565 -0.9836213 4.7030005
2.020159 -0.97202486 4.7030001
1.9293892 -1.968631 4.7150002
1.9397538 -1.9528456 4.7190003
2.0082986 -1.2712684 4.7160001
2.0082986 -1.2625461 4.7160001
2.0091503 -1.2543555 4.7180004
2.0095763 -1.2458936 4.7190003
2.0095763 -1.2371658 4.7190003
2.0087245 -1.2279174 4.717
2.0161655 -1.1748251 4.7140002
2.0174487 -1.1668487 4.717
2.0174487 -0.99236661 4.717
1.940576 -1.9449416 4.7210002
1.9428368 -1.9340928 4.7265005
1.9326628 -1.9282953 4.723
1.9555321 -1.8681371 4.7255001
1.9540071 -1.8564171 4.7253337
2.010428 -1.2158605 4.7210002
2.0187318 -1.1501315 4.7200003
2.0252378 -1.0027885 4.7250004
1.9450974 -1.9669771 4.7320004
1.9375733 -1.9244372 4.7350001
1.9471527 -1.9252501 4.737
1.955088 -1.8456206 4.7350001
2.0065722 -1.2450809 4.7325001
1.9997193 -1.2331238 4.737
2.0059364 -1.2315618 4.7310004
1.9992971 -1.2241042 4.7360001
2.0059364 -1.2228118 4.7310004
1.9997193 -1.2156016 4.737
2.0063603 -1.2143185 4.7320004
2.0264304 -0.87410343 4.7380004
2.0330455 -0.87318099 4.7330003
2.0347636 -0.86515784 4.737
1.9308527 -1.9177027 4.7400002
1.9448228 -1.9185119 4.7420001
1.9516743 -1.8682507 4.7480001
2.0272856 -0.86570579 4.7400002
2.0277133 -0.85711992 4.7410002
2.0364819 -0.85711992 4.7410002
1.936963 -1.914977 4.7550001
1.9461665 -1.9153796 4.756
1.9297905 -1.8901825 4.7590003
1.9708962 -1.6237372 4.7520003
1.9972627 -1.2370285 4.7520003
1.9991541 -1.2250037 4.7565002
2.0244808 -1.0177358 4.7540002
2.0227776 -0.89388758 4.75
2.0236292 -0.8854751 4.7520003
2.0257585 -0.87760872 4.7570004
2.0349841 -0.8513934 4.7580004
1.9426658 -1.9029746 4.7690001
1.931818 -1.8833574 4.7640004
1.9314126 -1.8741529 4.763
1.9338456 -1.8676935 4.7690001
1.9687138 -1.6247952 4.7680001
2.0132282 -0.92392397 4.7690001
2.0123837 -0.91471988 4.7670002
2.0148888 -0.90504813 4.7624998
2.0283136 -0.9051432 4.763
2.0272489 -0.8650471 4.7605
2.0308685 -0.85336173 4.7690001
1.9144001 -2.1352081 4.7755003
1.9447026 -1.8961402 4.7740002
1.9455173 -1.8792682 4.776
1.9964244 -1.2331506 4.7710004
2.0262883 -0.95237762 4.7790003
2.0174496 -0.94353884 4.7790003
2.0258644 -0.94334143 4.7780004
2.0149167 -0.93352658 4.7730002
2.0237443 -0.93352658 4.7730002
2.0233204 -0.92450517 4.7720003
2.0228963 -0.91548747 4.7710004
2.0241683 -0.84542692 4.7740002
2.0329978 -0.84542692 4.7740002
1.914184 -2.1310511 4.7860003
1.9383061 -1.8631608 4.7800002
1.9399282 -1.8558719 4.7840004
1.9419557 -1.8489543 4.789
1.9415501 -1.8352852 4.7880001
1.9310801 -1.8027838 4.7840004
1.9330984 -1.7958107 4.789
2.002492 -1.2059183 4.7855
2.0208268 -0.98938614 4.7870002
2.0187161 -0.95297545 4.7820001
2.0107124 -0.92682999 4.7840004
2.0279844 -0.90009773 4.783
2.0279844 -0.89125156 4.783
2.0284083 -0.88258988 4.7840004
2.0292563 -0.87410712 4.7860003
2.0305283 -0.86579776 4.789
2.0284083 -0.85604584 4.7840004
1.9177836 -2.1261902 4.7950001
1.9427667 -1.8231436 4.7910004
1.9439832 -1.8154187 4.7940001
1.9443886 -1.806929 4.7950001
1.9460107 -1.7995607 4.7990003
1.9361258 -1.785315 4.7965002
1.9631484 -1.6348474 4.7975006
1.9697607 -1.5753653 4.7920003
2.0157559 -0.95576543 4.796
2.0153356 -0.94669777 4.7950001
2.0136545 -0.93704706 4.7910004
2.0165966 -0.91179442 4.7980003
2.024626 -0.88480371 4.796
2.024626 -0.87593353 4.796
2.0258925 -0.86760569 4.7990003
2.0220933 -0.85711944 4.7900004
1.8947282 -2.3967311 4.8040004
1.9140906 -2.140847 4.8080001
1.9144887 -1.9989841 4.809
1.9480382 -1.7925506 4.8040004
1.9488492 -1.7844081 4.8060002
1.9395568 -1.7751499 4.8050003
1.9318753 -1.7495811 4.8080001
1.9656036 -1.5747035 4.8035002
1.9662174 -1.5618653 4.8050003
1.9678543 -1.5542713 4.809
2.0110703 -0.92220342 4.8060002
2.0110703 -0.91331476 4.8060002
2.0182776 -0.85926676 4.802
1.9006443 -2.2972617 4.8190002
1.9164792 -2.1346152 4.8140001
1.9429879 -1.764935 4.8135004
1.9448043 -1.75322 4.8180003
1.9338844 -1.7424989 4.8130002
1.9350898 -1.7346778 4.8160005
1.969491 -1.5377609 4.8130002
1.969491 -1.5288591 4.8130002
1.9703095 -1.5205891 4.8150001
1.9703095 -1.5116837 4.8150001
1.9745548 -1.475909 4.8145003
1.9751694 -1.4674617 4.816
2.0075972 -0.96034896 4.8190002
2.0139992 -0.95470154 4.8130002
2.0160916 -0.94232786 4.8180003
2.0139992 -0.93244833 4.8130002
2.0055141 -0.91483504 4.8140001
2.0055141 -0.90593153 4.8140001
2.0156732 -0.90649611 4.8170004
2.0059309 -0.89721435 4.8150001
2.01651 -0.88904697 4.8190002
2.0156732 -0.87531346 4.8170004
2.0231111 -0.87467885 4.8135004
2.0148363 -0.86159295 4.8150001
2.0127439 -0.85180217 4.8100004
1.8952645 -2.3015521 4.8280001
1.9208584 -2.0145588 4.8250003
1.946419 -1.7457572 4.822
1.9480336 -1.733815 4.8260002
1.9389069 -1.7247101 4.8255005
1.9650702 -1.5680413 4.8240004
1.9727647 -1.4556096 4.8210001
2.0143485 -0.98821378 4.8245001
2.0024173 -0.9710719 4.8280001
2.0147672 -0.97949386 4.8255005
2.008847 -0.96986514 4.822
2.0169284 -0.96946287 4.8200002
2.0084305 -0.9518311 4.8210001
2.0117633 -0.94447929 4.829
2.0092638 -0.92546552 4.8230004
2.0177653 -0.89851874 4.822
2.008847 -0.86284554 4.822
2.008014 -0.85357302 4.8200002
1.8980124 -2.3138313 4.835
1.9158971 -1.9382529 4.835
1.9139158 -1.9273155 4.8300004
1.9407151 -1.7129211 4.8300004
1.9423224 -1.7053993 4.8340001
1.9443313 -1.6982135 4.8390002
1.9341817 -1.6792722 4.8360004
1.9695512 -1.4911357 4.835
1.9695512 -1.4821935 4.835
1.9703659 -1.4738605 4.8370004
1.9707732 -1.4652174 4.8380003
2.0057352 -0.96373677 4.8360004
2.0125964 -0.93593556 4.8310003
1.8832386 -2.3534884 4.8430004
1.9089267 -2.1461439 4.8400002
1.9093212 -2.1376338 4.8410001
1.9186709 -1.8604615 4.842
1.9459386 -1.6906601 4.8430004
1.9479476 -1.6834391 4.848
1.9377813 -1.6734366 4.8450003
2.0082238 -0.9559772 4.842
1.8754007 -2.4234223 4.8575001
1.8882937 -2.3777683 4.8560004
1.8863494 -2.366348 4.8510003
1.905471 -2.1433742 4.8540001
1.9070412 -2.1361556 4.8580003
1.9226334 -1.9719893 4.8520002
1.914054 -1.96342 4.8530002
1.9242184 -1.9646338 4.8560004
1.9058635 -1.9552499 4.855
1.9156317 -1.9560553 4.8570004
1.9144485 -1.9458697 4.8540001
1.9070412 -1.9384882 4.8580003
1.9148428 -1.9372913 4.855
1.9148428 -1.9283118 4.855
1.9156318 -1.9156308 4.8570004
1.9499567 -1.6761998 4.8530002
1.9397811 -1.6661935 4.8500004
1.9433807 -1.6602987 4.8590002
1.9433807 -1.6333385 4.8590002
1.9425808 -1.6236831 4.8570004
1.9589323 -1.5774678 4.8530002
1.9585285 -1.5681689 4.8520002
1.9595377 -1.5555089 4.8544998
1.9609505 -1.5431535 4.8580003
1.9785129 -1.3452091 4.8570004
1.9789202 -1.3365012 4.8580003
1.9150759 -1.9060735 4.8670001
1.9203646 -1.8258097 4.8690004
1.9449805 -1.6526713 4.8630004
1.9449805 -1.6436771 4.8630004
1.953171 -1.6250203 4.8610001
1.9441806 -1.6160299 4.8610001
1.9535729 -1.6163623 4.8620005
1.937977 -1.6003503 4.868
1.9453804 -1.6080313 4.8640003
1.9621614 -1.5261256 4.8610001
1.9625651 -1.5174472 4.8620005
1.9633725 -1.5045775 4.8640003
1.9633725 -1.4910835 4.8640003
1.9645834 -1.4830017 4.8670001
1.964987 -1.474303 4.868
1.9239142 -1.9013596 4.8780003
1.9139109 -1.8958751 4.8755002
1.9235198 -1.8829297 4.8770003
1.9219422 -1.8723727 4.8730001
1.9219422 -1.8633602 4.8730001
1.9219422 -1.8543475 4.8730001
1.9219422 -1.8453349 4.8730001
1.9223366 -1.8366991 4.8740001
1.9485801 -1.6016653 4.8720002
1.9415599 -1.5942889 4.8770003
1.9540844 -1.5934718 4.8745003
1.9666016 -1.4304606 4.8720002
1.9666016 -1.4214498 4.8720002
1.9666016 -1.412439 4.8720002
1.9678127 -1.4042923 4.875
1.9768289 -1.3321618 4.875
1.9780455 -1.2878722 4.8780003
1.9772345 -1.278326 4.8760004
1.9764234 -1.2687873 4.8740001
1.924703 -1.8931135 4.8800001
1.9176402 -1.8860184 4.8850002
1.9097775 -1.8781363 4.888
1.9097775 -1.8600556 4.888
1.9101683 -1.8694782 4.8890004
1.9192104 -1.8513938 4.8890004
1.9164625 -1.8035967 4.8820004
1.9427541 -1.5862441 4.8800001
1.9517797 -1.5862441 4.8800001
1.9451427 -1.5791577 4.8860002
1.9539795 -1.574477 4.8855
1.9702345 -1.3969933 4.881
1.9702345 -1.3879659 4.881
1.9704363 -1.3745651 4.8815002
1.9702345 -1.3608836 4.881
1.9698309 -1.3515793 4.8800001
1.9698309 -1.3425537 4.8800001
1.9706382 -1.3340746 4.8820004
1.9759593 -1.3255882 4.8839998
1.9730601 -1.2995528 4.888
1.9706382 -1.2889283 4.8820004
1.9698309 -1.2748619 4.8800001
1.9726565 -1.2360172 4.8870001
1.9804785 -1.2352586 4.8840003
1.9726565 -1.2269788 4.8870001
1.980073 -1.2259744 4.8830004
1.9205844 -1.8753405 4.8924999
1.9199955 -1.8611971 4.8910003
1.919603 -1.8427285 4.8900003
1.9105589 -1.8336844 4.8900003
1.9203881 -1.8344344 4.8920002
1.9113404 -1.8253866 4.8920002
1.9211732 -1.8261329 4.8940001
1.9203881 -1.8163389 4.8920002
1.9471333 -1.5717279 4.8910003
1.9475315 -1.5630014 4.8920002
1.9376912 -1.5533184 4.8900003
1.9499201 -1.5558596 4.8980002
1.9648234 -1.4357455 4.8900003
1.9648234 -1.4267014 4.8900003
1.9662297 -1.4141455 4.8935003
1.9680378 -1.3837411 4.8980002
1.967636 -1.3744017 4.8970003
1.9680378 -1.3656235 4.8980002
1.9680378 -1.3565646 4.8980002
1.967636 -1.3472307 4.8970003
1.9684396 -1.3387201 4.8990002
1.9742711 -1.3184422 4.8910003
1.9746747 -1.309664 4.8920002
1.9664305 -1.2920965 4.8940001
1.965627 -1.2825207 4.8920002
1.9664305 -1.2739936 4.8940001
1.9672341 -1.2382935 4.8960004
1.967636 -1.2294894 4.8970003
1.8971149 -1.9741782 4.9020004
1.9416537 -1.5474323 4.9000001
1.943635 -1.5354009 4.9050007
1.94522 -1.523037 4.9090004
1.9448237 -1.5136493 4.9080005
1.953503 -1.5042654 4.9070001
1.9700468 -1.3307451 4.9030004
1.9712522 -1.3224857 4.9060001
1.9708505 -1.3131443 4.9050002
1.9692432 -1.303009 4.901
1.9625785 -1.2864532 4.9070001
1.9629785 -1.277638 4.9080005
1.9708505 -1.2224262 4.9050002
1.8930557 -2.0339553 4.9150004
1.8942112 -2.0261011 4.9180002
1.902146 -1.9066912 4.9150004
1.9025331 -1.897987 4.9160004
1.9025331 -1.8843478 4.9160004
1.903694 -1.8718522 4.9190001
1.9456162 -1.505185 4.9100003
1.9472013 -1.4973228 4.914
1.9550954 -1.4964087 4.9110003
1.9479938 -1.4888401 4.9160004
1.9554936 -1.4876287 4.9120002
1.9554936 -1.4785439 4.9120002
1.9566878 -1.452176 4.9150004
1.9582803 -1.4442601 4.9190001
1.9657781 -1.3749075 4.915
1.9657781 -1.3612729 4.9150004
1.9653782 -1.3519076 4.914
1.9657781 -1.3430923 4.9150004
1.9669781 -1.3348163 4.9180002
1.967378 -1.3168923 4.9190001
1.9661782 -1.3069971 4.9160004
1.9578822 -1.2984329 4.9180002
1.9637784 -1.2963208 4.9100003
1.9566878 -1.2885505 4.9150004
1.9653782 -1.2519345 4.914
1.9653782 -1.2428461 4.914
1.9645783 -1.2332555 4.9120002
1.8971 -2.1248417 4.9254999
1.8969073 -2.0153189 4.9250002
1.8980628 -1.929963 4.9280005
1.9048551 -1.8638905 4.9220004
1.9495789 -1.4809519 4.9200001
1.9432402 -1.4557215 4.927
1.9586784 -1.4354542 4.9200001
1.9594746 -1.4269345 4.9220004
1.9594746 -1.4178312 4.9220004
1.9590765 -1.4084418 4.921
1.9598727 -1.399909 4.9230003
1.9602708 -1.3910865 4.9240003
1.9598727 -1.3816988 4.9230003
1.9598727 -1.3725938 4.9230003
1.9594746 -1.3632118 4.9220004
1.9586784 -1.3535582 4.9200001
1.9586784 -1.3444587 4.9200001
1.9598727 -1.3361734 4.9230003
1.9642234 -1.3269335 4.9225001
1.9606689 -1.3184986 4.9250002
1.9598727 -1.308858 4.9230003
1.9598727 -1.2542275 4.9230003
1.9602708 -1.2453753 4.9240003
1.9602708 -1.2362684 4.9240003
1.9681779 -1.2264137 4.921
1.8900983 -2.1317756 4.9310002
1.8923982 -2.1252387 4.9370003
1.8897151 -2.0401628 4.9300003
1.8912483 -2.0326927 4.934
1.8931649 -2.0256178 4.9390001
1.8996035 -2.0045035 4.9320002
1.9022995 -1.9799445 4.9390001
1.901144 -1.9696126 4.9360003
1.8996035 -1.9224077 4.9320002
1.901144 -1.9148378 4.9360003
1.9022995 -1.9068669 4.9390001
1.9019144 -1.8882152 4.9380002
1.9022995 -1.8794628 4.9390001
1.9057077 -1.8554975 4.9360003
1.9022995 -1.8337893 4.9390001
1.9091122 -1.7676965 4.9330001
1.9535414 -1.4566078 4.9300003
1.9461982 -1.4442465 4.9345002
1.9551264 -1.4486643 4.934
1.9388384 -1.431863 4.9390001
1.9555227 -1.4398305 4.9350004
1.9571077 -1.4135935 4.9390001
1.9571077 -1.3953241 4.9390001
1.9567114 -1.3859088 4.9380002
1.9567114 -1.376776 4.9380002
1.9559189 -1.3670892 4.9360003
1.9547302 -1.3571347 4.9330001
1.9547302 -1.3480111 4.9330001
1.956117 -1.3352711 4.9365005
1.9571077 -1.3222467 4.9390001
1.9571077 -1.3039773 4.9390001
1.9563152 -1.2943182 4.9370003
1.9567114 -1.2854476 4.9380002
1.9626595 -1.2286568 4.9300003
1.9737773 -1.2207755 4.9350004
1.8687829 -2.4223268 4.947
1.8672718 -2.4112263 4.9430003
1.8672718 -2.4020841 4.9430003
1.8596333 -2.3948784 4.947
1.8684051 -2.3943944 4.9460001
1.8946981 -2.1186793 4.9430003
1.895848 -2.0193412 4.9460001
1.9042253 -2.0002367 4.9440002
1.9042253 -1.9910928 4.9440002
1.8962313 -1.974002 4.947
1.8969979 -1.9656469 4.9490004
1.9026847 -1.8981165 4.9400001
1.9046105 -1.8726002 4.9450002
1.9030699 -1.8436704 4.9410005
1.9061512 -1.7825831 4.9490004
1.9499451 -1.4333124 4.9440002
1.9419788 -1.4250327 4.947
1.9549086 -1.4244566 4.9450006
1.9427639 -1.4164556 4.9490004
1.9575039 -1.4047432 4.9400001
1.9519171 -1.3981493 4.9490004
1.9515227 -1.3887154 4.9480004
1.9515226 -1.3749893 4.948
1.9461582 -1.3607111 4.9460001
1.9461582 -1.3515635 4.9460001
1.9507339 -1.3424159 4.9460001
1.9575039 -1.3133779 4.9400001
1.9588908 -1.2548783 4.9435005
1.9590889 -1.2412897 4.9440002
1.9610703 -1.2333919 4.9490004
1.9670386 -1.2222598 4.9410005
1.8633925 -2.3905516 4.9570003
1.8641443 -2.3731728 4.9590001
1.871805 -2.3712585 4.9550004
1.8908964 -2.133848 4.9570003
1.8893706 -2.1229656 4.9530001
1.8916594 -2.0521638 4.9590001
1.8973813 -2.0118191 4.9500003
1.8996811 -2.0050917 4.9560003
1.8996811 -1.9959255 4.9560003
1.8981478 -1.9851558 4.9520001
1.8977646 -1.9572843 4.9510002
1.900831 -1.9512753 4.9590001
1.9076917 -1.8664691 4.9530001
1.9096175 -1.776655 4.9580002
1.9523115 -1.4167418 4.9500003
1.943549 -1.4078711 4.9510002
1.9523115 -1.4075868 4.9500003
1.943549 -1.3987143 4.9510002
1.9437454 -1.3851184 4.9514999
1.943549 -1.3712436 4.9510002
1.9431565 -1.3435016 4.9500003
1.9451193 -1.3356943 4.9550004
1.9523115 -1.3343465 4.9500003
1.9455118 -1.3267978 4.9560003
1.9527059 -1.3254592 4.9510002
1.9546779 -1.3176316 4.9560003
1.9558611 -1.3046718 4.9590001
1.9634478 -1.2257229 4.9550004
1.9710196 -1.2155765 4.9510002
1.9718158 -1.206907 4.9530001
1.8648962 -2.3833051 4.9610004
1.8931853 -2.0446401 4.9630003
1.9038975 -1.9452367 4.967
1.9046642 -1.9368298 4.9690003
1.948456 -1.3150334 4.9635
1.9498299 -1.3021833 4.967
1.9570444 -1.2916951 4.9620004
1.9574387 -1.2644182 4.9630003
1.9578332 -1.2554921 4.9640002
1.9574387 -1.2460601 4.9630003
1.9590164 -1.2378778 4.967
1.9654291 -1.2177863 4.96
1.9666178 -1.2093438 4.9630003
1.8410736 -2.47545 4.9710002
1.8429254 -2.4641364 4.9760003
1.8893206 -2.0596128 4.9770002
1.8973813 -2.0399723 4.9740005
1.8981441 -1.994777 4.9760003
1.8966184 -1.9839777 4.9720001
1.8973813 -1.9755764 4.9740005
1.8981441 -1.9671676 4.9760003
1.9077306 -1.9261386 4.9770002
1.9084972 -1.9131016 4.9790001
1.9077306 -1.9031281 4.9770002
1.9077306 -1.8939232 4.9770002
1.9084972 -1.8854755 4.9790001
1.9429877 -1.3129538 4.973
1.9441597 -1.3045428 4.9760003
1.9517927 -1.2667111 4.9720001
1.9521853 -1.2577684 4.973
1.9529704 -1.2444713 4.9750004
1.96158 -1.2256987 4.9735003
1.9629605 -1.2127552 4.9770002
1.9701841 -1.2023411 4.9720001
1.9785837 -1.045593 4.9700003
1.9849749 -1.0373394 4.9745007
1.8543619 -2.3473227 4.9820004
1.8838933 -2.063751 4.9870005
1.8923576 -2.0537035 4.9850001
1.89967 -2.0055909 4.98
1.9027216 -1.9626863 4.9880004
1.9092638 -1.8770206 4.9810004
1.9111804 -1.8696831 4.9860001
1.911947 -1.8427571 4.9880004
1.911947 -1.8335319 4.9880004
1.9121387 -1.7645184 4.9885006
1.9123303 -1.6401289 4.9890003
1.9549332 -1.2319072 4.98
1.9572885 -1.2241699 4.9860001
1.9568959 -1.2147045 4.9850001
1.9661157 -1.2054847 4.9850001
1.9757317 -1.0581807 4.9860001
1.9741467 -1.0481175 4.9820004
1.9749392 -1.0393203 4.9840002
1.9833609 -1.0296891 4.9820004
1.8869154 -2.0578232 4.9950004
1.8961537 -2.0023937 4.9950004
1.8961537 -1.9931555 4.9950004
1.8972925 -1.9851087 4.9980001
1.9130969 -1.8254037 4.9910002
1.9142469 -1.8172646 4.9940004
1.9146302 -1.8083901 4.9950004
1.9152051 -1.7950721 4.9965
1.9130969 -1.7792494 4.9910002
1.9142469 -1.7526096 4.9940004
1.9150134 -1.7440714 4.9960003
1.9161634 -1.735873 4.9990001
1.9150134 -1.7255912 4.9960003
1.9134803 -1.7149769 4.9920001
1.9127136 -1.7050607 4.9900002
1.9138635 -1.6968513 4.993
1.9150134 -1.6886307 4.9960003
1.9161634 -1.6619077 4.9990001
1.9146302 -1.6513397 4.9950004
1.9504111 -1.2718065 4.9920001
1.9511925 -1.2630796 4.9940004
1.9515833 -1.2540944 4.9950004
1.9519739 -1.2451053 4.9960003
1.9527553 -1.23636 4.9980001
1.9596438 -1.2071775 4.9920001
1.9716374 -1.051694 4.9990001
1.9773167 -1.0313426 4.9900002
1.9800905 -1.0235474 4.9970002
1.980883 -1.0147114 4.9990001
1.9692709 -0.99502438 4.993
1.977713 -0.97616404 4.9910002
1.9752715 -0.96799874 4.9965
1.9756658 -0.95894957 4.9975004
1.980883 -0.94999176 4.9990001
1.980883 -0.93150043 4.9990001
1.8910707 -2.0530963 5.006
1.8906929 -2.0156593 5.0050001
1.8899375 -2.0056007 5.0030003
1.8899375 -1.9963477 5.0030003
1.8918263 -1.9890805 5.0080004
1.8984313 -1.9770509 5.0010004
1.8980517 -1.9674081 5
1.8999498 -1.9045781 5.0050001
1.9038143 -1.894564 5.0030003
1.9047661 -1.886253 5.0055003
1.9173133 -1.6814075 5.0020003
1.9173133 -1.6721562 5.0020003
1.9442892 -1.2830921 5
1.9466224 -1.2753733 5.006
1.947789 -1.2668735 5.0090003
1.947789 -1.2483451 5.0090003
1.9474001 -1.2388337 5.0080004
1.9539275 -1.2278527 5.0010004
1.9539275 -1.2186033 5.0010004
1.9655322 -1.2015444 5.0070004
1.9743983 -1.0902011 5.006
1.9728206 -1.0800788 5.0020003
1.9736094 -1.0712558 5.0040002
1.973215 -1.0617886 5.0030003
1.9663173 -1.0537978 5.0090003
1.9663173 -1.0445337 5.0090003
1.9720318 -1.0426569 5
1.9740038 -1.0344428 5.0050001
1.9751871 -1.0165383 5.0080004
1.9655322 -1.0070748 5.0070004
1.9724262 -1.005868 5.0010004
1.9720318 -0.95018178 5
1.9720318 -0.9409343 5
1.9812793 -0.9409343 5
1.9720318 -0.93168676 5
1.8929596 -1.9810042 5.0110002
1.9041255 -1.8809327 5.0160003
1.913784 -1.7235655 5.0170002
1.9134026 -1.7139448 5.0160003
1.9481778 -1.2578604 5.0100002
1.9449003 -1.2309216 5.0135002
1.9423949 -1.2229894 5.0190001
1.9501221 -1.2220147 5.0150003
1.9574438 -1.2115303 5.0100002
1.9686726 -1.0921612 5.0150003
1.9678875 -1.0824541 5.013
1.9682801 -1.0733966 5.0140004
1.9678875 -1.063911 5.013
1.967495 -1.0358896 5.0120001
1.9682801 -1.0270295 5.0140004
1.9759759 -1.0262102 5.0100002
1.967495 -1.0173502 5.0120001
1.8897063 -2.0338168 5.0270004
1.8878267 -2.0225055 5.0220003
1.8874508 -2.0128167 5.0210004
1.8882027 -2.0043283 5.0230002
1.8982482 -1.9307764 5.0250001
1.8982482 -1.9214826 5.0250001
1.8974926 -1.9114277 5.0230002
1.8971149 -1.901759 5.0220003
1.8978704 -1.8932245 5.0240002
1.9090604 -1.7369891 5.0290003
1.9153099 -1.734226 5.0210004
1.907542 -1.7263138 5.0250001
1.9067827 -1.7163367 5.0230002
1.9086808 -1.708746 5.0280004
1.9149284 -1.7060272 5.0200005
1.9168357 -1.6984326 5.0250001
1.9175986 -1.6433239 5.0270004
1.9160728 -1.6327263 5.0230002
1.9153099 -1.6227899 5.0210004
1.9160728 -1.6141461 5.0230002
1.9175986 -1.6061342 5.0270004
1.945491 -1.2156413 5.0270004
1.9536219 -1.2149159 5.0240002
1.962523 -1.205384 5.0230002
1.9644766 -1.1786859 5.0280004
1.9640858 -1.169154 5.0270004
1.9706354 -1.1025345 5.0200005
1.9644766 -1.057795 5.0280004
1.9644766 -1.0484958 5.0280004
1.9646719 -1.0346493 5.0285006
1.9640858 -1.0203949 5.0270004
1.8461523 -2.409543 5.0350003
1.8726002 -2.2029223 5.0310001
1.8748335 -2.1776016 5.0370002
1.8647768 -2.0836146 5.0350003
1.8737168 -2.0832007 5.0340004
1.8830273 -2.0832007 5.0340004
1.8729725 -2.0730665 5.0320001
1.8830273 -2.0738904 5.0340004
1.8744613 -2.0654001 5.0360003
1.8837754 -2.0654001 5.0360003
1.8848976 -2.0200324 5.039
1.890834 -1.9978185 5.0300002
1.8919618 -1.9897015 5.0330005
1.8938413 -1.9450892 5.0380001
1.8934654 -1.9353871 5.0370002
1.9005147 -1.8865575 5.0310001
1.9098196 -1.793509 5.0310001
1.90944 -1.7838496 5.0300002
1.90944 -1.7745466 5.0300002
1.9105788 -1.7662964 5.0330005
1.9117177 -1.7580352 5.0360003
1.9109584 -1.7480266 5.0340004
1.9109584 -1.7014745 5.0340004
1.919506 -1.6542652 5.0320001
1.9120973 -1.637277 5.0370002
1.9113381 -1.6273146 5.0350003
1.9198874 -1.5987426 5.0330005
1.9210317 -1.5903815 5.0360003
1.9210317 -1.5810673 5.0360003
1.9214132 -1.5720654 5.0370002
1.9206504 -1.5621289 5.0350003
1.9202689 -1.5525082 5.0340004
1.9210317 -1.543811 5.0360003
1.9210317 -1.5344969 5.0360003
1.9202689 -1.5245771 5.0340004
1.9210317 -1.4692982 5.0360003
1.9482 -1.2080237 5.0340004
1.9571216 -1.2077837 5.0330005
1.9491675 -1.1946497 5.0365
1.9584826 -1.1946497 5.0365
1.9590659 -1.1810302 5.0380001
1.9594548 -1.171945 5.039
1.9679929 -1.1155841 5.0370002
1.9664301 -1.1053897 5.0330005
1.965258 -1.0954279 5.0300002
1.965258 -1.0861248 5.0300002
1.9660394 -1.07725 5.0320001
1.9660394 -1.0679433 5.0320001
1.848719 -2.4222183 5.0420003
1.869962 -2.1921277 5.0490003
1.869962 -2.1827896 5.0490003
1.869962 -2.1734514 5.0490003
1.8684804 -2.1623988 5.0450001
1.8673694 -2.0678611 5.0420003
1.8781835 -2.060169 5.046
1.8789278 -2.0329766 5.0480003
1.8785557 -2.0232394 5.0470004
1.8852717 -2.0297549 5.0400004
1.8863938 -2.0123088 5.0430002
1.8886383 -2.0053649 5.0490003
1.8882642 -1.9676226 5.0480003
1.8871419 -1.9571224 5.0450001
1.8945931 -1.9551828 5.0400004
1.8867679 -1.9474057 5.0440001
1.8867679 -1.9380767 5.0440001
1.895345 -1.9279832 5.0420003
1.8964727 -1.9197996 5.0450001
1.8959088 -1.9052364 5.0434999
1.8968486 -1.8921824 5.046
1.906559 -1.7852113 5.0470004
1.9069368 -1.7435517 5.0480003
1.9058034 -1.7331848 5.0450001
1.9054257 -1.7235123 5.0440001
1.9139954 -1.6948533 5.0420003
1.916273 -1.687534 5.0480003
1.9166526 -1.6785301 5.0490003
1.916273 -1.6688614 5.0480003
1.9147545 -1.65821 5.0440001
1.9143749 -1.6485543 5.0430002
1.9136157 -1.6152679 5.0410004
1.9158934 -1.6031897 5.0470004
1.9166526 -1.5851487 5.0490003
1.9240835 -1.4949527 5.0440001
1.9233205 -1.480374 5.0420003
1.9427413 -1.1824367 5.0440001
1.9520701 -1.1824367 5.0440001
1.944667 -1.1742707 5.0490003
1.9528441 -1.173573 5.046
1.9625655 -1.1644711 5.0470004
1.9617878 -1.1266867 5.0450001
1.9621767 -1.1175774 5.046
1.9536182 -1.1086842 5.0480003
1.9610101 -1.107586 5.0430002
1.9559568 -1.0980412 5.0420003
1.9555697 -1.0885 5.0410004
1.9520701 -1.079819 5.0440001
1.9612045 -1.0750465 5.0434999
1.9617878 -1.0613716 5.0450001
1.9617878 -1.0520408 5.0450001
1.961399 -1.0425034 5.0440001
1.9617878 -1.0333793 5.0450001
1.9610101 -1.0236427 5.0430002
1.9610101 -0.9863345 5.0430002
1.9629544 -0.97797608 5.0480003
1.8452308 -2.4299047 5.0580001
1.8445013 -2.4195929 5.0560002
1.8707026 -2.2023377 5.0510001
1.8635719 -2.1675422 5.0570002
1.8635719 -2.074013 5.0570002
1.8732952 -2.0650682 5.0580001
1.8804168 -2.0532749 5.052
1.8804168 -2.0439312 5.052
1.8796723 -2.0151021 5.0500002
1.8822777 -2.0085423 5.0570002
1.8830222 -1.9625535 5.059
1.8890122 -1.9310422 5.0500002
1.8905085 -1.9232243 5.0540004
1.8905085 -1.913877 5.0540004
1.8901345 -1.9041528 5.0530005
1.8901345 -1.8948072 5.0530005
1.8946174 -1.8852751 5.0525002
1.8923788 -1.8783438 5.059
1.9076922 -1.7722625 5.0500002
1.9084477 -1.7636206 5.052
1.9088255 -1.7546242 5.0530005
1.9076922 -1.7162225 5.0500002
1.9095811 -1.7085725 5.0550003
1.9170322 -1.5948027 5.0500002
1.9170322 -1.5761228 5.0500002
1.9177915 -1.5674032 5.052
1.9177915 -1.5580596 5.052
1.9177915 -1.5487158 5.052
1.9177915 -1.5393722 5.052
1.917222 -1.5249043 5.0504999
1.9200691 -1.5037813 5.0580001
1.9204487 -1.4853653 5.059
1.9196895 -1.4754251 5.0570002
1.9193099 -1.4657823 5.0560002
1.9481335 -1.1670091 5.0580001
1.9559402 -1.1660862 5.0540004
1.9481335 -1.1576543 5.0580001
1.9578753 -1.1578832 5.059
1.946978 -1.1476184 5.0550003
1.9574882 -1.1482996 5.0580001
1.9462076 -1.1378189 5.0530005
1.9555532 -1.1378189 5.0530005
1.9458225 -1.12825 5.052
1.9543922 -1.1278033 5.0500002
1.9458225 -1.1189064 5.052
1.9543922 -1.1184634 5.0500002
1.9543922 -1.0717634 5.0500002
1.9551662 -1.0628443 5.052
1.9547791 -1.053292 5.0510001
1.9547791 -1.0439502 5.0510001
1.9543922 -1.0344034 5.0500002
1.9578753 -0.98010719 5.059
1.865783 -2.2075701 5.0630002
1.8577023 -2.19504 5.0665007
1.8646774 -2.1969035 5.0600004
1.8654145 -2.1884098 5.0620003
1.8578856 -2.1718285 5.0670004
1.865783 -2.1794779 5.0630002
1.8679941 -2.0695593 5.0690002
1.8762581 -2.0542784 5.066
1.8755174 -2.0347373 5.0640001
1.8766284 -2.0218856 5.0670004
1.8833944 -2.0003755 5.0600004
1.8848833 -1.9925909 5.0640001
1.8841388 -1.9824417 5.0620003
1.8833944 -1.9722999 5.0600004
1.8841388 -1.9543551 5.0620003
1.8848833 -1.9457614 5.0640001
1.8867443 -1.8914319 5.0690002
1.8942491 -1.8708345 5.0640001
1.8946232 -1.8618362 5.0650001
1.8946232 -1.8524684 5.0650001
1.8949972 -1.8434646 5.0660005
1.8957454 -1.8348191 5.0680003
1.8957454 -1.8254458 5.0680003
1.903615 -1.8052733 5.0640001
1.8961195 -1.7976806 5.0690002
1.9028631 -1.7951981 5.0620003
1.9032391 -1.7861887 5.0630002
1.9047427 -1.7782285 5.0670004
1.9054946 -1.7695552 5.0690002
1.9054946 -1.750805 5.0690002
1.9047427 -1.7407428 5.0670004
1.9054946 -1.7320547 5.0690002
1.9126031 -1.7019124 5.0630002
1.9141141 -1.6470284 5.0670004
1.9137365 -1.6373339 5.0660005
1.9148697 -1.6289283 5.0690002
1.9148697 -1.6195532 5.0690002
1.9212079 -1.4953129 5.0610003
1.9227264 -1.4590238 5.0650001
1.951985 -1.0662103 5.0680003
1.8413205 -2.4746411 5.0730004
1.8424094 -2.4667163 5.0760002
1.8416835 -2.4375913 5.0740004
1.8413205 -2.4277284 5.0730004
1.8589855 -2.2106223 5.0700002
1.8517975 -2.2038503 5.0760002
1.8514327 -2.1940298 5.0750003
1.8593522 -2.1829216 5.0710001
1.8611856 -2.0724173 5.0760002
1.8705736 -2.0630291 5.0760002
1.8716792 -2.0360675 5.0790005
1.8788506 -2.0148973 5.0730004
1.8799617 -2.0067008 5.0760002
1.8810728 -1.9984931 5.0790005
1.8799617 -1.9879246 5.0760002
1.879221 -1.977757 5.0740004
1.8803321 -1.9695363 5.0770001
1.888047 -1.9349537 5.0725002
1.8886054 -1.9214507 5.0740004
1.8886054 -1.9120663 5.0740004
1.8878609 -1.901932 5.072
1.8874887 -1.8827993 5.0710001
1.8886054 -1.8745288 5.0740004
1.889722 -1.8662472 5.0770001
1.8904665 -1.8575888 5.0790005
1.8964936 -1.8167892 5.0700002
1.8968675 -1.8077687 5.0710001
1.8978027 -1.7851989 5.0735002
1.899112 -1.7723479 5.0770001
1.8994859 -1.7633053 5.0780001
1.9062464 -1.7608746 5.0710001
1.8994859 -1.7539135 5.0780001
1.899112 -1.7441782 5.0770001
1.89986 -1.7354717 5.0790005
1.90775 -1.7247187 5.0750003
1.9088777 -1.7163464 5.0780001
1.9152474 -1.6573806 5.0700002
1.916003 -1.6111311 5.072
1.9163808 -1.6020662 5.0730004
1.916003 -1.5923697 5.072
1.9167585 -1.5836132 5.0740004
1.9186473 -1.5757802 5.0790005
1.9269021 -1.4528043 5.0760002
1.9464449 -1.0589224 5.0780001
1.9527553 -1.0572541 5.0700002
1.9527553 -1.0478771 5.0700002
1.9527553 -1.0385002 5.0700002
1.9539108 -1.0297321 5.0730004
1.8344659 -2.4780557 5.0800004
1.8373548 -2.4443171 5.0880003
1.8359103 -2.4329925 5.0840001
1.8550808 -2.2171626 5.085
1.8550808 -2.0949011 5.085
1.8626522 -2.0646548 5.0800004
1.8644855 -2.0572822 5.085
1.8724163 -2.0556641 5.0810003
1.8644855 -2.0478776 5.085
1.8720477 -2.0458639 5.0800004
1.8652189 -2.0345685 5.0869999
1.8740745 -2.0245624 5.0855002
1.8829247 -1.962849 5.0840001
1.8836653 -1.9542146 5.0860004
1.8844061 -1.8985214 5.0880003
1.8836653 -1.8883686 5.0860004
1.8844061 -1.8797009 5.0880003
1.8912109 -1.848923 5.0810003
1.8912109 -1.8395256 5.0810003
1.8910248 -1.8252494 5.0805006
1.8926997 -1.8127596 5.085
1.8926997 -1.8033549 5.085
1.9024785 -1.728457 5.0860004
1.9194028 -1.5670033 5.0810003
1.9201584 -1.5582191 5.0830002
1.9197806 -1.5485133 5.0820003
1.9190251 -1.5385084 5.0800004
1.9201584 -1.511214 5.0830002
1.9212916 -1.5026994 5.0860004
1.9220471 -1.4938799 5.0880003
1.9216694 -1.4841779 5.0870004
1.9310778 -1.4371358 5.0870004
1.9295594 -1.4266047 5.0830002
1.9306982 -1.4180402 5.0860004
1.9475948 -1.0407532 5.0810003
1.9495113 -1.0323709 5.0860004
1.9502779 -1.0233666 5.0880003
1.8293816 -2.4462385 5.092
1.828663 -2.4358637 5.0900002
1.8482169 -2.2107971 5.092
1.8482169 -2.2013793 5.092
1.8569049 -2.1911006 5.0900002
1.858729 -2.1838298 5.0950003
1.8572698 -2.0879571 5.0910001
1.8585465 -2.0752587 5.0945005
1.8594586 -2.0621371 5.0970001
