# .PCD v0.7 - Point Cloud Data file format
VERSION 0.7
FIELDS x y z
SIZE 4 4 4
TYPE F F F
COUNT 1 1 1
WIDTH 1043
HEIGHT 1
VIEWPOINT 0 0 0 1 0 0 0
POINTS 1043
DATA ascii
-0.85627884 -1.0656573 2.1360002
-0.79274172 -1.0643505 2.1386669
-0.78492475 -1.0653247 2.1353333
-0.77493036 -1.0631816 2.135
-0.75473946 -1.0640342 2.136143
-0.74438488 -1.0666552 2.138
-0.73350227 -1.0647738 2.1374002
-0.72642088 -1.0644286 2.1375
-0.79418415 -1.0592419 2.1390002
-0.77440369 -1.0592419 2.1390002
-0.76464611 -1.0548624 2.1370001
-0.75359863 -1.0550394 2.1375
-0.73054504 -1.0587467 2.138
-0.72549868 -1.0577582 2.1386669
-1.1509503 -1.0444356 2.1330001
-1.1491563 -1.0463942 2.1370001
-0.78231585 -1.0453956 2.1390002
-0.77530169 -1.0442846 2.1387501
-0.76424611 -1.0450288 2.1382501
-1.1328164 -1.0301025 2.1360002
-0.77044761 -1.0394614 2.1390002
-1.1182024 -1.0214837 2.1345
-0.83366823 -1.0721431 2.1490002
-0.8246932 -1.0708127 2.1463335
-0.81464374 -1.0706464 2.1460001
-0.71310103 -1.0701474 2.1450002
-0.70516664 -1.0701474 2.1450002
-0.69524872 -1.0701474 2.1450002
-0.68575555 -1.0708126 2.1463335
-0.45189813 -1.0716442 2.148
-0.9206804 -1.0676714 2.148
-0.91315985 -1.0641938 2.1490002
-0.90403235 -1.0604799 2.1415
-0.89590126 -1.0615908 2.14575
-0.8632499 -1.0674136 2.1435001
-0.85830224 -1.0666773 2.1460001
-0.84161741 -1.0641938 2.1490002
-0.83447528 -1.0648578 2.1476667
-0.82514215 -1.0654371 2.1475
-0.81492919 -1.0650647 2.14675
-0.80520326 -1.0646894 2.1420002
-0.79851335 -1.0656739 2.1400001
-0.78484392 -1.0619636 2.1405001
-0.77908754 -1.0602323 2.141
-0.74453729 -1.0625407 2.1403334
-0.73931706 -1.0619636 2.1405001
-0.72147572 -1.0652822 2.1416001
-0.71464294 -1.0651875 2.1456668
-0.70529222 -1.0659821 2.1478002
-0.69502932 -1.0660815 2.1480002
-0.68660873 -1.0681685 2.1490002
-1.1494911 -1.0562623 2.1450002
-0.84096462 -1.0554262 2.1473334
-0.83455426 -1.0548533 2.1461668
-0.82456529 -1.0547712 2.1460001
-0.81515026 -1.055426 2.1473334
-0.80472165 -1.0547688 2.1459999
-0.79410058 -1.0569279 2.1423335
-0.7854858 -1.0549089 2.1422501
-0.77518868 -1.0543748 2.1411669
-0.74421906 -1.0547236 2.1432223
-0.7342205 -1.0558729 2.1418002
-0.72328407 -1.0543636 2.1438334
-0.71773684 -1.0572462 2.1470001
-1.1473476 -1.048353 2.141
-0.84161741 -1.0482956 2.1490002
-0.83558702 -1.0445312 2.1478
-0.82475847 -1.045091 2.1465001
-0.81483358 -1.0450916 2.1465001
-0.80553311 -1.0459026 2.1481667
-0.79418296 -1.0460167 2.1443334
-0.786201 -1.0436453 2.1415
-0.77278674 -1.0478632 2.1400001
-0.75343668 -1.0425339 2.1412501
-0.74550253 -1.0453484 2.1452858
-0.73452646 -1.0452083 2.14675
-0.72765398 -1.0475258 2.1458001
-1.13327 -1.0354443 2.1443336
-1.1232897 -1.0319169 2.148
-0.84161741 -1.0323973 2.1490002
-0.83502495 -1.035288 2.1484001
-0.82525027 -1.0357813 2.1477778
-0.81420112 -1.0343615 2.1448333
-0.80476183 -1.0349791 2.1461115
-0.79593664 -1.0366838 2.1480002
-0.78511959 -1.0359058 2.1466668
-0.77512932 -1.0352995 2.1422224
-0.76442915 -1.0354084 2.1411431
-0.75559032 -1.0347492 2.1440003
-0.74553204 -1.0373921 2.1470001
-0.73672444 -1.0373745 2.1483333
-1.1251632 -1.0299952 2.1440001
-1.113436 -1.0235434 2.1443331
-0.84161741 -1.0284227 2.1490002
-0.83546066 -1.0281835 2.1485
-0.82268697 -1.0266199 2.148
-0.81504142 -1.0238096 2.1460001
-0.80434591 -1.0245246 2.1450002
-0.79498291 -1.0252417 2.1465001
-0.78958029 -1.0239714 2.148
-0.77465338 -1.0261413 2.1470001
-0.76512438 -1.0259509 2.144875
-0.75370741 -1.0277847 2.1476667
-1.108005 -1.014763 2.1453333
-0.81474143 -1.0173496 2.148
-0.80480576 -1.0151845 2.1462224
-0.79436612 -1.0145274 2.1448333
-0.78958029 -1.0160246 2.148
-1.2752508 -1.0017704 2.1430001
-1.1129227 -1.0067904 2.1452503
-0.80149847 -1.0080805 2.148
-0.79632521 -1.0069121 2.1483333
-1.1122288 -0.99536049 2.1420002
-1.1139481 -0.98918712 2.1415
-0.67514259 -1.0725448 2.1530004
-0.84518337 -1.0653499 2.1513336
-0.71310568 -1.0612061 2.151
-0.7053144 -1.0614526 2.1515002
-0.69420975 -1.0622001 2.151
-0.68419665 -1.0642688 2.1518333
-0.67674547 -1.0657362 2.1555715
-0.87536532 -1.0544838 2.1521666
-0.84677243 -1.0537366 2.1520002
-0.71495211 -1.0547172 2.154
-0.70517153 -1.0550144 2.1556251
-0.69517338 -1.0554954 2.1544287
-0.68511653 -1.0558274 2.1552501
-0.46887797 -1.0562216 2.1530001
-0.84488261 -1.0439103 2.1522501
-0.72399426 -1.0443702 2.1518333
-0.71633941 -1.0453483 2.15625
-0.70555848 -1.0468601 2.1583335
-0.69531047 -1.0484517 2.1575
-0.6894843 -1.0486946 2.158
-0.50189668 -1.0407121 2.158
-0.49556556 -1.0439763 2.1564999
-0.48555607 -1.0438951 2.1563332
-0.47507238 -1.0467508 2.1540003
-0.46844241 -1.0492712 2.151
-0.85462505 -1.0341263 2.1567502
-0.84597504 -1.0350733 2.1524999
-0.79230368 -1.0328777 2.1500001
-0.78670472 -1.0333581 2.151
-0.74458647 -1.0328777 2.1500001
-0.73332667 -1.0332608 2.1508
-0.72539741 -1.0370351 2.156286
-0.50383365 -1.0346056 2.1577501
-0.49406615 -1.0370412 2.1586668
-0.88458383 -1.0235298 2.1588004
-0.85445493 -1.0274075 2.158
-0.84602618 -1.0233988 2.1551669
-0.83393145 -1.0243317 2.1511428
-0.82490587 -1.0224322 2.1503334
-0.79031545 -1.0289012 2.1500001
-0.78453302 -1.0251632 2.1505001
-0.77567494 -1.0222986 2.1507502
-0.76500154 -1.0216606 2.1515002
-0.75500935 -1.0235077 2.1530001
-0.74526018 -1.0255004 2.1554
-0.73617983 -1.0290596 2.1545
-0.51011539 -1.0252221 2.1590002
-0.50510579 -1.0251738 2.1575
-0.49813616 -1.0292152 2.1590002
-1.1060981 -1.0137852 2.1545
-0.84248185 -1.0154338 2.1580002
-0.83480197 -1.0158516 2.1548574
-0.8250739 -1.0141709 2.1524999
-0.81701702 -1.0120641 2.1522501
-0.78448611 -1.0137031 2.1527145
-0.77521724 -1.0151985 2.153625
-0.76569593 -1.015752 2.1558573
-0.75809872 -1.0191004 2.1545
-0.51011539 -1.017236 2.1590002
-0.50612229 -1.017236 2.1590002
-1.1127394 -1.0051529 2.1545002
-0.8349719 -1.0085486 2.1575003
-0.82442147 -1.0058523 2.1560001
-0.81334782 -1.0053047 2.1548336
-0.80585337 -1.0038615 2.1535716
-0.79364306 -1.0045718 2.1518333
-0.78376645 -1.0047315 2.1554286
-0.77529567 -1.0047899 2.1580002
-0.76948702 -1.0070195 2.1585002
-1.1144758 -0.996952 2.1540003
-0.80232149 -0.99782991 2.1573334
-0.79469943 -0.9981091 2.1565001
-0.78563416 -0.99784935 2.1568
-0.77765143 -0.99727058 2.1590002
-0.53008074 -0.98129827 2.1590002
-0.52409112 -0.98129827 2.1590002
-0.51810151 -0.98129827 2.1590002
-0.53008074 -0.97730517 2.1590002
-0.5260877 -0.97730517 2.1590002
-0.71009791 -1.0416766 2.1600001
-0.50259435 -1.0221751 2.161
-0.84621859 -1.0130641 2.1607502
-0.76220834 -1.0119485 2.1605
-0.75563061 -1.0158476 2.1645555
-0.5235455 -1.0140585 2.165
-0.51466501 -1.0150051 2.1613333
-0.50447291 -1.0139434 2.1622002
-0.83617586 -1.0034741 2.1623335
-0.82395327 -1.0017275 2.1600001
-0.81796086 -1.0017275 2.1600001
-0.7700218 -1.0017275 2.1600001
-0.76355791 -1.0046972 2.1627145
-0.52548897 -1.0039289 2.1647501
-0.51505339 -1.0056292 2.1608748
-0.50556487 -1.0041223 2.1651666
-0.49634665 -1.0067002 2.1642501
-0.83386981 -0.99803811 2.1650002
-0.82419938 -0.9962815 2.1638
-0.81568682 -0.9958362 2.1645715
-0.80565071 -0.9944694 2.1645
-0.79436678 -0.99360734 2.1632001
-0.78454298 -0.99354112 2.1648002
-0.77478266 -0.99624151 2.1640003
-0.76508951 -0.99828255 2.1664002
-0.53167665 -0.99426675 2.1655002
-0.52461445 -0.99422646 2.1628003
-0.51487494 -0.99476022 2.1622224
-0.50558442 -0.99414992 2.1652501
-0.80294663 -0.98939866 2.1680002
-0.79492718 -0.98939866 2.1680002
-0.78708875 -0.98962682 2.1685002
-0.54030991 -0.98137921 2.1680002
-0.53364921 -0.98563123 2.1626668
-0.52433389 -0.98574769 2.1600001
-0.51387841 -0.98478717 2.1614001
-0.50628495 -0.98750746 2.1682501
-0.54406857 -0.97491562 2.1670003
-0.53556806 -0.97457373 2.1617999
-0.52422535 -0.97350389 2.1612
-0.51610082 -0.97549236 2.1625714
-0.54348272 -0.96385545 2.1646669
-0.53474516 -0.96464628 2.163182
-0.52550703 -0.9639287 2.1648333
-0.51741934 -0.96778512 2.1645002
-0.54346824 -0.95482635 2.1678002
-0.53630018 -0.95732087 2.1680002
-0.54388165 -0.94590217 2.1682501
-0.53654754 -0.94572771 2.1690001
-0.54164648 -0.93593508 2.1680002
-0.5492146 -0.96489108 2.1715002
-0.55651915 -0.95503646 2.1765001
-0.54883516 -0.95820403 2.1700001
-0.53347981 -0.9542976 2.1728573
-0.52925539 -0.95908713 2.1720002
-0.56294316 -0.94159549 2.1780002
-0.55520982 -0.94522667 2.174
-0.54883516 -0.94215035 2.1700001
-0.53302699 -0.94659978 2.171
-0.52949911 -0.9474718 2.1730001
-0.56294316 -0.93555313 2.1780002
-0.55600703 -0.9360587 2.1745002
-0.5465377 -0.93342924 2.1715
-0.56285697 -0.92534161 2.1776669
-0.55466026 -0.92510438 2.1771114
-0.5442338 -0.9244895 2.175667
-0.53375614 -0.92176878 2.1740003
-0.56463373 -0.914886 2.1767502
-0.55513191 -0.91488934 2.1758003
-0.54477227 -0.91290867 2.1730001
-0.83408022 -0.90048563 2.1760001
-0.82918596 -0.90172714 2.1790001
-0.56320167 -0.9097873 2.1790001
-0.55544841 -0.90562207 2.17625
-0.5347265 -0.90395254 2.1758752
-0.83818752 -0.89841652 2.171
-0.82413316 -0.89440125 2.171
-0.81760532 -0.89604914 2.1750002
-0.79511362 -0.8916164 2.174
-0.63142288 -0.8932569 2.1780002
-0.52693105 -0.89769709 2.1790001
-0.77456355 -0.88639659 2.1750002
-0.76767659 -0.88438761 2.1760001
-0.75157851 -0.88036311 2.1760001
-0.74789757 -0.88076764 2.177
-0.55942822 -0.95052397 2.1800001
-0.56801265 -0.92516637 2.1820002
-0.60461015 -0.91145736 2.1830001
-0.57440031 -0.91544038 2.1848001
-0.56749201 -0.91020483 2.1800001
-0.88521111 -0.90741992 2.1830001
-0.82427323 -0.90296865 2.1820002
-0.81825888 -0.90524471 2.1875
-0.80556917 -0.90058088 2.1860001
-0.79987133 -0.90099287 2.187
-0.60474861 -0.90560627 2.1835001
-0.5743053 -0.90594506 2.1867502
-0.56606042 -0.90508938 2.18225
-0.55955648 -0.90436387 2.1805
-0.81179416 -0.89852107 2.1810002
-0.78617352 -0.89517087 2.1826668
-0.77797925 -0.89735818 2.1880002
-0.76657295 -0.89181441 2.1843336
-0.75791931 -0.89351559 2.1885002
-0.63258249 -0.89086181 2.1820002
-0.60126048 -0.89431411 2.1855001
-0.57558 -0.89523226 2.1877501
-0.56625515 -0.89530724 2.1830001
-0.55959928 -0.89434934 2.1806669
-0.52385747 -0.89328843 2.1830003
-0.76321447 -0.88621652 2.1805
-0.75457007 -0.88790995 2.1846666
-0.74525768 -0.8853538 2.1850002
-0.73515356 -0.88279104 2.187
-0.63461185 -0.88967115 2.1890001
-0.62912297 -0.88157821 2.184
-0.57335913 -0.88885832 2.187
-0.56526941 -0.88481092 2.187
-0.55527955 -0.88339466 2.1835001
-0.52356362 -0.88405222 2.1838751
-0.51637661 -0.8821851 2.1855001
-0.73380899 -0.87915766 2.1830001
-0.72538775 -0.87491351 2.1849999
-0.71678638 -0.87247932 2.1865001
-0.62594229 -0.87267888 2.187
-0.56376207 -0.87752551 2.1890001
-0.55460209 -0.87567204 2.1863999
-0.54637098 -0.87415016 2.1826
-0.5249173 -0.8747673 2.1850002
-0.51625848 -0.87390137 2.1850002
-0.71329474 -0.86664808 2.1820002
-0.70570588 -0.86522645 2.1835001
-0.6965667 -0.86439145 2.1865001
-0.68288249 -0.86093777 2.1880002
-0.62132871 -0.86783963 2.1850002
-0.55364066 -0.86942834 2.1890001
-0.54388869 -0.86484355 2.1856
-0.52398312 -0.8645494 2.1856253
-0.51325303 -0.86865401 2.1836669
-0.81234241 -0.85536307 2.1806667
-0.80642873 -0.85429889 2.1828573
-0.79485637 -0.8534345 2.1843336
-0.78445739 -0.85310858 2.1835001
-0.77566946 -0.85031074 2.1815
-0.67497933 -0.85368234 2.1860001
-0.54149497 -0.8572827 2.1890001
-0.52850294 -0.85793161 2.1855001
-0.8055259 -0.84508818 2.1826
-0.79685229 -0.84702414 2.1876001
-0.78000355 -0.84879762 2.1880002
-0.77340335 -0.8482157 2.1865001
-0.76426542 -0.84705192 2.1835001
-0.75491244 -0.84519404 2.1856668
-0.74503297 -0.8419857 2.1843336
-0.66540778 -0.84516227 2.1875713
-0.79968846 -0.83810544 2.1865001
-0.74256361 -0.83955151 2.1850002
-0.7348119 -0.83791149 2.1860001
-0.72471082 -0.83589268 2.1860001
-0.79987133 -0.8221181 2.187
-0.69331598 -0.82894278 2.1890001
-0.68521887 -0.82894278 2.1890001
-0.57819605 -0.90425402 2.1900001
-0.77261573 -0.8981784 2.1900001
-0.75270718 -0.89453626 2.1910002
-0.59954113 -0.89576113 2.194
-0.57819605 -0.89007759 2.1900001
-0.73333305 -0.8875106 2.1936667
-0.63635135 -0.8839879 2.1950002
-0.57681811 -0.88439667 2.1940002
-0.72061789 -0.87872809 2.1920002
-0.71470201 -0.87690336 2.1925001
-0.70787644 -0.87646961 2.1965001
-0.69505656 -0.87161285 2.1945
-0.68975478 -0.8726058 2.197
-0.63366854 -0.87636614 2.1962502
-0.62765956 -0.8710171 2.1930001
-0.59223419 -0.8726058 2.197
-0.57104969 -0.87533599 2.1936667
-0.56421298 -0.87214863 2.1907501
-0.69565791 -0.86780035 2.1900001
-0.68527097 -0.86801529 2.195667
-0.67622584 -0.86277395 2.1926668
-0.66547495 -0.8646102 2.1973336
-0.65551353 -0.86080742 2.198
-0.62634712 -0.86794949 2.1955001
-0.56543654 -0.86388582 2.1955001
-0.55476332 -0.86442846 2.1934445
-0.54629117 -0.86251169 2.1920002
-0.51378834 -0.86375391 2.1938748
-0.67135543 -0.8576743 2.1900001
-0.66454852 -0.85668075 2.1916003
-0.65553743 -0.85356027 2.1940002
-0.6212427 -0.85713196 2.1990001
-0.61388564 -0.85131919 2.1945
-0.56023687 -0.85306489 2.1990001
-0.55541044 -0.85528541 2.1960001
-0.54541528 -0.85475981 2.1950002
-0.53518331 -0.85235786 2.1930001
-0.5250324 -0.85467941 2.1927145
-0.51510775 -0.85435742 2.1948574
-0.79457998 -0.84320766 2.1910002
-0.78572166 -0.84549826 2.1912501
-0.77434075 -0.84327954 2.1926003
-0.76544517 -0.84452367 2.1926668
-0.75559497 -0.84281749 2.1935
-0.74494994 -0.84048134 2.198
-0.65612239 -0.84474707 2.1932499
-0.61227214 -0.84580696 2.1960001
-0.5537588 -0.84638608 2.1975002
-0.54554653 -0.84422517 2.1971667
-0.53550965 -0.84644979 2.1976669
-0.5251888 -0.84619308 2.197
-0.51414227 -0.84404325 2.1953752
-0.5065192 -0.84351879 2.1953335
-0.79573923 -0.83425951 2.1923335
-0.78596103 -0.83463931 2.1933336
-0.77658528 -0.83546257 2.1955001
-0.73717046 -0.8385694 2.1930001
-0.72328734 -0.83429998 2.1960001
-0.71470064 -0.83229381 2.1925001
-0.67384142 -0.83191514 2.1915002
-0.66436321 -0.83476472 2.1936667
-0.65754706 -0.83641434 2.1980002
-0.79425257 -0.82468635 2.1938334
-0.78560013 -0.82828569 2.198
-0.70504135 -0.82880402 2.1940002
-0.69660836 -0.82775164 2.1930001
-0.68496197 -0.82702965 2.1946669
-0.67684144 -0.82838035 2.1946669
-0.66771007 -0.82828569 2.1980002
-0.79499668 -0.81530547 2.195889
-0.80234742 -0.80437261 2.191
-0.79534847 -0.80463612 2.1968572
-0.80607128 -0.79491091 2.1942501
-0.79964733 -0.79761475 2.1975002
-0.81624067 -0.78665763 2.195286
-0.80832726 -0.787992 2.1990001
-0.82693005 -0.77814752 2.1980002
-0.84899783 -0.76765674 2.1990001
-0.65342903 -0.86513323 2.2012501
-0.65015531 -0.85568213 2.2005
-0.61801767 -0.85015607 2.2020001
-0.76485986 -0.84226578 2.2026665
-0.65020448 -0.84556991 2.2006667
-0.61695904 -0.84538734 2.2055001
-0.54014713 -0.84124613 2.2
-0.51980263 -0.84124613 2.2
-0.7727766 -0.83386379 2.2020001
-0.7677688 -0.83506423 2.2051666
-0.73418504 -0.83746499 2.2043335
-0.72532749 -0.83278418 2.2063334
-0.7160852 -0.83016992 2.2030001
-0.65222603 -0.83467913 2.2020001
-0.78420788 -0.82434231 2.2014287
-0.77409035 -0.82508457 2.20575
-0.71104115 -0.82903939 2.2
-0.70412123 -0.82657444 2.2070003
-0.69359726 -0.82396305 2.2027502
-0.68490446 -0.82330918 2.201
-0.67498273 -0.82362109 2.2018335
-0.6644457 -0.82490444 2.2020001
-0.65522975 -0.82506669 2.2038889
-0.60323018 -0.82574284 2.2075
-0.52486587 -0.82449484 2.2041667
-0.78541815 -0.81498075 2.2046249
-0.77760476 -0.81844115 2.2079999
-0.68299901 -0.819803 2.2080002
-0.67483163 -0.819803 2.2080002
-0.66442227 -0.81955546 2.2073333
-0.65615761 -0.81943166 2.207
-0.79241925 -0.80055708 2.2
-0.78638786 -0.80502719 2.2042859
-0.80055708 -0.79241925 2.2
-0.79450274 -0.79348189 2.2043753
-0.78602958 -0.79746103 2.2072003
-0.82090157 -0.78021252 2.2
-0.81387073 -0.78229415 2.2030001
-0.80497468 -0.78575569 2.204143
-0.79974651 -0.78748983 2.2090001
-0.84124613 -0.7720747 2.2
-0.83468586 -0.77149695 2.2041669
-0.82425088 -0.77412689 2.2058575
-0.81547052 -0.77873081 2.2073333
-0.58176029 -0.77533841 2.2035003
-0.86198229 -0.76021338 2.2010002
-0.85387671 -0.76260233 2.2032001
-0.84575748 -0.76662475 2.2054
-0.57095569 -0.76706213 2.2090001
-0.56355137 -0.76761007 2.2066667
-0.8843714 -0.75207192 2.2010002
-0.87479031 -0.75360167 2.2024999
-0.86578751 -0.75499308 2.2024
-0.85577828 -0.75582004 2.2060001
-0.84634614 -0.75038004 2.2080002
-0.96593803 -0.74425858 2.2060001
-0.9576441 -0.74189407 2.2010002
-0.93511897 -0.74242109 2.2034287
-0.92513782 -0.7456159 2.2060001
-0.915043 -0.74557239 2.204143
-0.90561628 -0.74466211 2.203167
-0.89495534 -0.74630433 2.2020004
-0.88524181 -0.744663 2.2031667
-0.87585437 -0.74601305 2.2037144
-0.86480278 -0.74664366 2.2030001
-0.85464334 -0.7463035 2.2045715
-0.84420091 -0.74385577 2.2056
-0.83528483 -0.74247777 2.20575
-0.82555449 -0.74187648 2.207
-0.81522673 -0.74176437 2.2066667
-0.80791759 -0.74254882 2.2090001
-0.94439316 -0.73928279 2.2033336
-0.92210424 -0.73625427 2.2085001
-0.9142158 -0.73483723 2.2042501
-0.79974651 -0.73642051 2.2090001
-0.93027353 -0.7239995 2.2085001
-0.92344993 -0.72549397 2.2068334
-0.79938447 -0.72996157 2.2080002
-0.93006289 -0.71771044 2.2080002
-0.92372859 -0.71754789 2.2075
-0.91556215 -0.71754789 2.2075
-0.89535052 -0.71771049 2.2080002
-0.88350028 -0.71803552 2.2090001
-0.84877312 -0.71803552 2.2090001
-0.68974876 -0.82054555 2.21
-0.78332496 -0.79314953 2.2134001
-0.80426252 -0.78175271 2.2130003
-0.79436964 -0.78514957 2.2153752
-0.82128811 -0.77219492 2.2120001
-0.81420684 -0.775289 2.2150002
-0.56059593 -0.77171481 2.2165003
-0.84429443 -0.76402086 2.2144001
-0.83548594 -0.76479244 2.21575
-0.82624906 -0.76681525 2.2161667
-0.57660311 -0.76914555 2.2150002
-0.56618953 -0.76437169 2.217
-0.84567988 -0.75569391 2.2116001
-0.83535862 -0.75508285 2.2146001
-0.82582676 -0.75453615 2.2154002
-0.81457442 -0.75309879 2.2160003
-0.97353822 -0.74422956 2.214
-0.96900558 -0.74389338 2.2130001
-0.8331846 -0.74731034 2.2110002
-0.82537919 -0.74764842 2.2120001
-0.81371611 -0.74821168 2.2136667
-0.80324018 -0.74389338 2.2130001
-0.7966724 -0.74335587 2.2175002
-0.93454921 -0.73586452 2.2117143
-0.92702764 -0.73692101 2.2105002
-0.79625332 -0.73561776 2.2151999
-0.94332278 -0.72463882 2.2142003
-0.9354158 -0.72481948 2.2110002
-0.82277328 -0.72031087 2.2160001
-0.81773108 -0.721286 2.2190001
-0.80255842 -0.7247923 2.2130001
-0.79890269 -0.72916532 2.2180002
-0.94077986 -0.71966076 2.214
-0.93474203 -0.71564305 2.2142501
-0.92563599 -0.71342862 2.2150002
-0.91648453 -0.71578139 2.2146666
-0.90474266 -0.71621233 2.2160001
-0.89287478 -0.71682072 2.2136667
-0.88481826 -0.71420097 2.214
-0.86414802 -0.71243519 2.217
-0.85760868 -0.71621239 2.2160001
-0.84359801 -0.71884811 2.2115002
-0.83579636 -0.71917319 2.2125001
-0.82761133 -0.71917319 2.2125001
-0.9305923 -0.70897388 2.2190001
-0.92401969 -0.70865434 2.2180002
-0.91828018 -0.70897388 2.2190001
-0.88265461 -0.70673734 2.2120001
-0.86661988 -0.70538825 2.2163334
-0.85428232 -0.70044994 2.2180002
-0.85888386 -0.69918674 2.214
-0.82015252 -0.75856411 2.22
-0.79283404 -0.74656361 2.224
-0.79395467 -0.73430264 2.2242503
-0.78805906 -0.73728347 2.2260001
-0.95282704 -0.72258121 2.223
-0.81230646 -0.72193611 2.2210002
-0.8046 -0.72434497 2.22525
-0.79838389 -0.72833216 2.2280002
-0.94386607 -0.71524763 2.2232003
-0.91725904 -0.71388131 2.2214999
-0.90511543 -0.71564871 2.227
-0.86205971 -0.71374953 2.2275
-0.85299969 -0.71750516 2.22
-0.84502536 -0.71517599 2.2237146
-0.83646232 -0.71720892 2.2233336
-0.82985687 -0.71879798 2.2240002
-0.93516243 -0.70882958 2.2250001
-0.92857593 -0.70645809 2.2240002
-0.91541207 -0.70993239 2.2220001
-0.86404032 -0.70787573 2.2220001
-0.8543728 -0.70614493 2.2262502
-0.85195285 -0.69536662 2.2280002
-0.84927619 -0.69728965 2.2210002
-0.69330716 -0.6706425 2.2280002
-0.68681681 -0.67034149 2.227
-0.7159701 -0.66240108 2.2280002
-0.69347531 -0.66465026 2.2263334
-0.71184939 -0.65828037 2.2280002
-0.69219899 -0.65511554 2.2277503
-0.68697107 -0.65401012 2.2275
-0.85477984 -0.71455055 2.23
-0.72514987 -0.69618452 2.2372501
-0.71587336 -0.69434917 2.2380002
-0.70429748 -0.69521195 2.2328
-0.69848764 -0.69020927 2.2380002
-0.72246093 -0.68525386 2.2353334
-0.7140314 -0.6844117 2.2348335
-0.70445788 -0.68438447 2.2344286
-0.69449037 -0.68374336 2.2358003
-0.68752289 -0.6813215 2.2360001
-0.72330189 -0.67372417 2.2336667
-0.71511018 -0.67383534 2.23175
-0.70529348 -0.67431313 2.2333336
-0.69423985 -0.67567176 2.2310002
-0.68484014 -0.67451352 2.2340002
-0.72464162 -0.66512907 2.2344003
-0.71407622 -0.66594476 2.2306666
-0.70487189 -0.66565496 2.2320001
-0.68142301 -0.66487861 2.2363334
-0.72338837 -0.65621263 2.2350001
-0.71566886 -0.65456504 2.2322001
-0.70469451 -0.65516996 2.2314444
-0.69630295 -0.65297741 2.2310002
-0.68410009 -0.65518165 2.2338336
-0.71408951 -0.64681935 2.23825
-0.70469642 -0.64881742 2.2380002
-0.69525844 -0.64481068 2.2356
-0.68762988 -0.64463818 2.2349999
-0.72811204 -0.67839742 2.24
-0.68314976 -0.67900312 2.2420001
-0.67745477 -0.66500854 2.2437501
-0.72843713 -0.6538319 2.2410002
-0.68021458 -0.6511367 2.2460001
-0.67930597 -0.65648961 2.243
-0.72358942 -0.64676392 2.2452502
-0.71430248 -0.64387339 2.24
-0.70572001 -0.64354205 2.24125
-0.69911188 -0.64111149 2.24
-0.6847949 -0.64536721 2.244
-0.71520668 -0.63839042 2.2450001
-0.70471859 -0.63829565 2.2446668
-0.69776124 -0.63952786 2.2490001
-0.9867897 -0.53598183 2.2465003
1.1680409 -0.76376051 2.2535
1.1711683 -0.76308268 2.2515001
1.1709008 -0.75801158 2.2550001
1.1782037 -0.73363793 2.2570002
-0.69391012 -0.63981217 2.25
-0.98564458 -0.53393328 2.2509999
-0.98652035 -0.52399063 2.253
-0.99134684 -0.51391542 2.2545002
-0.98922175 -0.51633912 2.2560003
-0.9917866 -0.5058012 2.2555001
-0.98914754 -0.50240755 2.2590001
-0.99200648 -0.4954786 2.2560003
-0.98914754 -0.49614054 2.2590001
1.1708454 -0.76204532 2.2670002
1.179231 -0.74108124 2.2670002
1.1821189 -0.7465477 2.2645001
1.1766303 -0.73526317 2.2620001
1.1802918 -0.73911983 2.2610002
1.1745199 -0.72818142 2.266
-0.98932976 -0.51092637 2.2690001
-0.98945761 -0.50571656 2.2645001
-0.99089903 -0.49283364 2.263
-0.98932976 -0.49833682 2.2690001
-0.99412721 -0.48746714 2.2639999
-1.0001531 -0.47232357 2.2650001
-0.99882829 -0.47797149 2.2620001
-1.0018253 -0.46478057 2.2650001
-1.0836159 -0.44566023 2.2643335
-1.0806998 -0.43919808 2.2670002
1.1786665 -0.73495799 2.2740002
-0.98976576 -0.50695318 2.2700002
-0.9921639 -0.49345022 2.2755003
-0.99667782 -0.48380038 2.273
-1.000581 -0.47240841 2.2755001
-0.99828458 -0.47756216 2.2766666
-1.0010207 -0.46419525 2.2765002
-1.0010207 -0.45577538 2.2765002
-1.0872854 -0.44436881 2.2720001
-1.0008008 -0.44515237 2.276
-0.99768603 -0.41403398 2.2785001
-0.99790496 -0.40780276 2.279
-0.99834281 -0.47123468 2.2800002
-0.99899966 -0.46521479 2.2815001
-0.99878073 -0.45456648 2.2810001
-0.99630606 -0.42366871 2.2850001
-0.99489492 -0.41450998 2.2850001
-0.99693465 -0.40462172 2.2848337
-1.0036258 -0.39454579 2.2824287
-0.99696004 -0.39434415 2.2865
-1.0029994 -0.38495862 2.2810001
-0.99608403 -0.38554886 2.2845001
-0.99628472 -0.3753908 2.2837503
1.3653626 -0.59395933 2.2980001
1.3562719 -0.58095592 2.2970002
1.3696128 -0.58970916 2.2980001
1.3747896 -0.58919597 2.296
1.3841949 -0.58649367 2.2954001
1.3568624 -0.57695872 2.2980001
1.4084769 -0.57720977 2.299
-0.99229193 -0.4171935 2.2920001
-0.9924885 -0.40500554 2.2918
-0.79233509 -0.40200135 2.2940001
-0.78877944 -0.40235183 2.296
-0.99267399 -0.3951636 2.2912502
-0.98857814 -0.39606881 2.2965002
-0.80365962 -0.39282966 2.2900002
-0.79553616 -0.39511979 2.2910001
-0.78579921 -0.39555049 2.2935002
-0.9903037 -0.38447085 2.2906668
-0.98836297 -0.38536477 2.2960002
-0.99446386 -0.35461292 2.2932858
-1.0002302 -0.34260273 2.2940001
-0.99583024 -0.34538734 2.2956002
-1.001206 -0.33679822 2.293
-0.99516582 -0.33667922 2.2970002
-0.98762321 -0.33451915 2.2967501
-0.98241997 -0.32605755 2.2969999
-0.97675258 -0.32299307 2.2953336
-1.6572192 -0.25405735 2.299
-1.6309974 -0.24119636 2.2980001
1.37071 -0.59201872 2.3070002
1.3592242 -0.58647811 2.302
1.3655548 -0.58524013 2.3055
1.3749983 -0.58541483 2.3050001
1.3841661 -0.58196759 2.3010004
1.3567324 -0.57231784 2.3050001
1.3642324 -0.57603961 2.3056667
1.3754352 -0.5754528 2.306875
1.3846673 -0.57477415 2.3038573
1.3942341 -0.57409489 2.3035715
1.4050833 -0.57535785 2.3018003
1.3360009 -0.56594247 2.3016
1.3462009 -0.56283873 2.3040001
1.352176 -0.56793201 2.3045001
1.3761688 -0.56690896 2.309
1.3867555 -0.56515872 2.3076668
1.395101 -0.56446415 2.3040001
1.404753 -0.56454909 2.3018575
1.4142205 -0.56504977 2.3014286
1.4224694 -0.56281602 2.3010001
1.2963206 -0.55373752 2.3074999
1.3048587 -0.55373752 2.3074999
1.3150867 -0.5526576 2.3030002
1.3373551 -0.55430645 2.3010001
1.346077 -0.5552696 2.3050003
1.3673317 -0.55611277 2.3085001
1.3889804 -0.55836797 2.309
1.39342 -0.55544913 2.3057501
1.2688565 -0.54105157 2.3080001
1.2757024 -0.54429299 2.3036668
1.2852759 -0.54626995 2.303
1.2957616 -0.54283285 2.3065002
1.3274627 -0.54911262 2.306
1.3362827 -0.54389822 2.3065
1.342921 -0.54313076 2.3032501
1.3549106 -0.54541749 2.3048003
1.3642768 -0.54656458 2.3087502
1.3968263 -0.54445177 2.3043334
1.2854003 -0.53667635 2.3045001
1.294956 -0.53497297 2.3063335
1.3989519 -0.53505111 2.3066666
1.2448394 -0.52374989 2.3070002
1.2864883 -0.52420396 2.309
1.2907588 -0.52633917 2.309
1.243907 -0.51633835 2.30725
-0.78589976 -0.39879891 2.3000002
-0.99008483 -0.35413346 2.3000002
-0.98755068 -0.35455111 2.3073332
-0.99008483 -0.34562573 2.3000002
-0.98490345 -0.345218 2.3058
-0.98353469 -0.33507887 2.3006003
-0.97482973 -0.33346859 2.3041668
-0.9727354 -0.32495558 2.30425
-0.963597 -0.28526658 2.3038001
-0.89069486 -0.28480902 2.3070002
-0.93590271 -0.26785785 2.3080001
-0.92990154 -0.26797393 2.309
-1.6631826 -0.25737765 2.3033335
-1.6551242 -0.25013131 2.302
-1.6427193 -0.24443369 2.3085001
-1.6338313 -0.24619418 2.3050001
-1.6295682 -0.24193108 2.3050001
-1.648755 -0.21208936 2.3050001
1.3672668 -0.57192159 2.312
1.3724926 -0.57142687 2.3100002
1.3565767 -0.56336951 2.312
1.3650994 -0.56542218 2.3134003
1.3732338 -0.56532472 2.3112502
1.3830599 -0.56454992 2.3110001
1.2955902 -0.5500651 2.3100002
1.3039728 -0.55089855 2.3134999
1.3147615 -0.55093819 2.3136666
1.3217963 -0.55030322 2.3110001
1.3559899 -0.55671543 2.3110001
1.3625479 -0.55677545 2.3112502
1.3755116 -0.55572021 2.3122001
1.3861642 -0.55499959 2.3150001
1.3923197 -0.55030322 2.3110001
1.2695192 -0.54316139 2.3170002
1.3066754 -0.54471612 2.3145001
1.3159916 -0.54502898 2.3158333
1.3246493 -0.54418594 2.3122501
1.3317695 -0.54317957 2.3110001
1.3688124 -0.54389191 2.3110001
1.374275 -0.54436266 2.3130002
1.3851227 -0.54526526 2.3168335
1.393073 -0.54418594 2.3122501
1.2518375 -0.53007662 2.3160002
1.2684233 -0.5384109 2.3150001
1.2750258 -0.53623277 2.3130002
1.2833668 -0.53259653 2.3130002
1.2998625 -0.53297567 2.3100002
1.3067695 -0.53404868 2.3146667
1.31399 -0.53752512 2.3173335
1.3253185 -0.53547835 2.3146667
1.3347892 -0.53412682 2.3150001
1.345245 -0.53477758 2.3155003
1.3557936 -0.53455359 2.3106668
1.3664277 -0.53479922 2.3142002
1.374827 -0.53586358 2.3163335
1.3854578 -0.53500992 2.3164999
1.3944453 -0.53524017 2.3124001
1.2373794 -0.5238775 2.3170002
1.24273 -0.52618295 2.3130002
1.2544937 -0.52297407 2.3130002
1.262037 -0.52218521 2.319
1.2847517 -0.52462882 2.3135715
1.2972728 -0.52511084 2.313
1.3045925 -0.52483302 2.3165002
1.327419 -0.52346474 2.3183334
1.3341118 -0.52316415 2.3138335
1.3457826 -0.52567917 2.3155
1.3542482 -0.52635235 2.3153336
1.3643315 -0.52470797 2.3150001
1.3959562 -0.52595693 2.3143752
1.4048319 -0.52245378 2.3126001
1.4121653 -0.52060902 2.312
1.2352433 -0.51655626 2.3130002
1.1676753 -0.49238434 2.3133335
1.1946551 -0.49393442 2.31725
1.223457 -0.49445382 2.3163335
1.2567233 -0.49495029 2.3148572
1.3644404 -0.49288201 2.3156667
1.1661674 -0.48510039 2.3160002
1.1766236 -0.48499569 2.3155003
1.1849771 -0.48554197 2.313
1.2057599 -0.48337573 2.3180001
1.2421997 -0.4855184 2.3180001
1.262037 -0.48787326 2.319
1.2708353 -0.48713693 2.3155
1.1185675 -0.47204524 2.3150001
1.1345323 -0.47245395 2.3170002
1.1447494 -0.47296333 2.3160002
1.1558412 -0.47568366 2.3153334
1.1652454 -0.47615704 2.3141668
1.2025563 -0.47466552 2.3173335
1.2254277 -0.47839966 2.314667
1.2352368 -0.47888193 2.3170002
1.1071556 -0.46194002 2.3180001
1.1150875 -0.4631021 2.3166668
1.1345116 -0.46500888 2.3155
1.1135862 -0.45765287 2.3180001
1.1376561 -0.45785031 2.319
1.1456562 -0.4554764 2.3178337
-0.96900326 -0.32704532 2.3140001
-0.89845306 -0.29020354 2.3160002
-0.88988614 -0.29020354 2.3160002
-0.6807313 -0.29266039 2.3185
-0.55517733 -0.29416263 2.3135002
-0.96021074 -0.28090703 2.3100002
-0.95497006 -0.28552732 2.3128335
-0.89676785 -0.28583655 2.3153334
-0.67970365 -0.28579664 2.3150001
-0.96041858 -0.27455837 2.3105001
-0.9551425 -0.27488586 2.3132503
-0.94475442 -0.27283394 2.3140001
-0.93401307 -0.27446011 2.3156669
-0.92923898 -0.27759272 2.3180001
-0.8965134 -0.27675444 2.3110001
-0.96021074 -0.26808998 2.3100002
-0.95421505 -0.26820603 2.3110001
-0.94546163 -0.26814801 2.3105001
-0.60367614 -0.26484549 2.319
-0.59698606 -0.26473129 2.3180001
-0.88522029 -0.25796533 2.3150001
-1.6601895 -0.24512148 2.3150001
-1.633794 -0.24715546 2.3140001
-1.6302184 -0.23869908 2.3150001
-1.6530467 -0.20836724 2.3110001
1.2599175 -0.53167874 2.3230002
1.2802962 -0.53122097 2.3210001
1.3176883 -0.53272754 2.3213334
1.3242733 -0.53249866 2.3203335
1.3765857 -0.53110653 2.3205001
1.3827249 -0.53099209 2.3200002
1.2667147 -0.52580005 2.3223336
1.2752292 -0.52534813 2.3235002
1.2819511 -0.52546024 2.3240001
1.3150625 -0.52495217 2.3217502
1.3225513 -0.52579945 2.3223336
1.3587345 -0.52308595 2.3230002
1.3618574 -0.52263558 2.3210001
1.3750317 -0.52489454 2.3215001
1.3856825 -0.52523053 2.3261669
1.3914723 -0.52444118 2.3226669
1.4176625 -0.50117213 2.3210001
1.4305493 -0.50268364 2.3280001
1.1667726 -0.49574488 2.3257499
1.2059548 -0.49505326 2.3225
1.2172883 -0.49617207 2.3277502
1.2212499 -0.49515939 2.3230002
1.3743651 -0.49537069 2.3240001
1.3825932 -0.4938601 2.3270001
1.4048494 -0.4962301 2.3246667
1.4137634 -0.4946543 2.3240001
1.4231734 -0.49445945 2.3247502
1.1396184 -0.480122 2.3230002
1.1465564 -0.48032868 2.3240001
1.1568916 -0.48750961 2.3275001
1.1606007 -0.48635805 2.322
1.2068002 -0.48808366 2.3200002
1.2154156 -0.48466265 2.3241668
1.220549 -0.48413911 2.3216667
1.2464902 -0.48189864 2.324667
1.2563143 -0.48591217 2.3242857
1.2639371 -0.48430949 2.3225002
1.3752499 -0.48924077 2.3255
1.3831873 -0.48976669 2.3280001
1.4078074 -0.48612088 2.3260002
1.4148715 -0.48955631 2.3270001
1.4305406 -0.48400134 2.3210001
1.4467324 -0.48081097 2.3263333
1.4547387 -0.48395815 2.3276668
1.1381468 -0.47521111 2.3200002
1.1424376 -0.47521111 2.3200002
1.1536608 -0.47970864 2.3210001
1.2068002 -0.47306567 2.3200002
1.2154832 -0.47493783 2.3256667
1.2233509 -0.47520912 2.3270001
1.2341132 -0.47664493 2.3270001
1.2411011 -0.47684976 2.3280001
1.3567704 -0.47234115 2.3270001
1.401095 -0.47991532 2.322
1.4434186 -0.47541595 2.3210001
1.4536699 -0.47596216 2.3236668
1.1041664 -0.46553576 2.3252501
1.1133581 -0.46703169 2.322
1.1252742 -0.46233857 2.3200002
1.2056952 -0.46703169 2.322
1.4059731 -0.46626756 2.3253334
1.4588065 -0.46548504 2.325
1.0889984 -0.4547348 2.325
1.0968621 -0.45532158 2.3280001
1.1054817 -0.45659086 2.3235002
1.114547 -0.4537569 2.3200002
1.1238558 -0.45619661 2.3215001
1.1335828 -0.45570904 2.3211999
1.1906624 -0.4584426 2.322
1.4070363 -0.45502865 2.3265002
1.4439231 -0.45405096 2.3270001
1.4557576 -0.45942977 2.3270001
1.053237 -0.44126442 2.322
1.0866566 -0.44946605 2.3200002
1.093564 -0.44965976 2.3210001
1.1084293 -0.44530371 2.3206668
1.1159085 -0.44571853 2.3228335
1.1227359 -0.44816431 2.3206668
1.4127196 -0.44651839 2.3270001
1.0512011 -0.43360701 2.3270001
1.1058199 -0.43446654 2.3224001
1.073181 -0.40795952 2.3280001
-0.43791083 -0.30018947 2.3270001
-0.95211017 -0.28445184 2.3215001
-0.93359339 -0.28469735 2.3235002
-0.95149493 -0.27783224 2.3200002
-0.94546509 -0.27795199 2.3210001
-0.93902695 -0.27795199 2.3210001
-0.92380303 -0.27789211 2.3205001
-0.9171682 -0.27783224 2.3200002
-0.88297367 -0.261343 2.3260002
-0.59561139 -0.26936659 2.3210001
-0.88398302 -0.25670952 2.3230002
-0.87968665 -0.25670952 2.3230002
1.3855644 -0.49779662 2.332
1.3963042 -0.49541649 2.3343334
1.4028138 -0.49168599 2.332
1.4299196 -0.49966246 2.3340001
1.4330074 -0.49923429 2.332
1.2550954 -0.48156878 2.3300002
1.3792996 -0.4871293 2.3360002
1.3857106 -0.48540926 2.334667
1.3947196 -0.48507196 2.3365002
1.4012582 -0.48434675 2.3329999
1.4447222 -0.48541483 2.334667
1.4502594 -0.48629519 2.332
1.2272956 -0.47170144 2.3345001
1.3660458 -0.47190535 2.3355002
1.3983749 -0.47910294 2.3390002
1.401857 -0.47591993 2.3340001
1.3585196 -0.46864074 2.3300002
1.4059846 -0.4643434 2.3344002
1.4496375 -0.46453071 2.3310001
1.4527349 -0.46362138 2.3336668
1.468141 -0.46924415 2.3330002
1.4700288 -0.46552712 2.3360002
1.4054556 -0.4536185 2.3340003
1.4550048 -0.45525298 2.335
1.4626391 -0.45295328 2.3380001
1.052296 -0.44016907 2.3390002
1.3980761 -0.44656211 2.3385
1.4046015 -0.44515827 2.3360002
1.4117447 -0.44541541 2.3325
1.4471865 -0.44786161 2.3340001
1.4530388 -0.44766971 2.3330002
1.4620135 -0.44843724 2.3370001
1.0519772 -0.43697381 2.3335001
1.4052724 -0.43894583 2.3325
1.4114422 -0.43885174 2.332
1.0457299 -0.4068535 2.3340001
1.0741031 -0.40400064 2.3300002
1.0840458 -0.40962428 2.3375001
1.0850452 -0.39623043 2.335
1.0720894 -0.38327467 2.335
1.0682281 -0.37911838 2.3360002
-0.4729501 -0.30057648 2.3300002
-0.40866047 -0.30299193 2.3320003
-0.51217341 -0.29652146 2.332
-0.49923429 -0.29652146 2.332
-0.42753172 -0.29521033 2.3330002
-0.46512485 -0.28814229 2.3340003
-0.43472505 -0.28801882 2.3330002
-0.49555483 -0.27818841 2.335
-0.47828358 -0.27530998 2.335
-0.45629948 -0.27938905 2.3330002
-0.43885174 -0.27926931 2.332
1.4017346 -0.47085321 2.3410001
1.395934 -0.45592687 2.3421667
1.4033006 -0.45550466 2.3400002
1.4645159 -0.45786417 2.3410001
1.3940024 -0.4444392 2.3437777
1.0861806 -0.39481154 2.3436668
1.0705146 -0.38425952 2.3410001
