# .PCD v0.7 - Point Cloud Data file format
VERSION 0.7
FIELDS x y z
SIZE 4 4 4
TYPE F F F
COUNT 1 1 1
WIDTH 1401
HEIGHT 1
VIEWPOINT 0 0 0 1 0 0 0
POINTS 1401
DATA ascii
-0.3552793 0.12873681 0.66647631
-0.34522775 0.12918463 0.66660005
-0.33520019 0.12904394 0.6666472
-0.32482892 0.12888011 0.6684286
-0.31569481 0.12893456 0.66799998
-0.30458003 0.1289071 0.6668666
-0.29547086 0.12877545 0.66621065
-0.28609732 0.12875947 0.66722733
-0.27406919 0.12858777 0.66660005
-0.26506379 0.1288802 0.66564012
-0.25543085 0.12874734 0.66562968
-0.24461417 0.12860809 0.66521442
-0.23463483 0.12829661 0.66488588
-0.22470757 0.12870832 0.66543347
-0.2149401 0.1286125 0.66680777
-0.20489693 0.12883733 0.66504174
-0.1952197 0.12859745 0.66466665
-0.18437043 0.1280974 0.66531426
-0.17451605 0.12833172 0.66584623
-0.16556367 0.12833127 0.66481251
-0.15451631 0.12855178 0.66419995
-0.14515354 0.12859161 0.66490334
-0.13518441 0.12779522 0.66360605
-0.12534584 0.12817599 0.66543323
-0.11488542 0.1284312 0.66611534
-0.10496674 0.1283613 0.66488904
-0.094917007 0.12796119 0.66421634
-0.084870614 0.12845342 0.66442853
-0.075394735 0.1275281 0.66409755
-0.065464079 0.12711802 0.66403705
-0.054785807 0.12690942 0.66461539
-0.04476605 0.12654151 0.66426682
-0.034517098 0.12676135 0.66455561
-0.024897421 0.12695405 0.66485
-0.015159658 0.12666929 0.66520011
-0.0053110351 0.12647913 0.66486359
0.0048692501 0.12597424 0.66431433
0.014635176 0.1252161 0.6640445
0.025413336 0.12604527 0.6640588
0.035589498 0.12587439 0.66459459
0.04467861 0.12431855 0.66428578
0.054885581 0.12496784 0.66454053
0.064934023 0.12443133 0.66419506
0.074782662 0.12425906 0.66483796
0.084692605 0.12442912 0.66396004
0.09536273 0.12405931 0.66441941
0.10511301 0.12448615 0.66463155
0.11495493 0.12393154 0.6645385
0.12465841 0.12365728 0.66445953
0.13492297 0.12358899 0.6643889
0.14518677 0.12377932 0.66431576
0.15512013 0.12314373 0.66420519
0.16493811 0.1226702 0.66406822
0.17521732 0.12156414 0.66464537
0.1852684 0.12158678 0.66431427
0.19490995 0.12153596 0.66406459
0.20457602 0.12122718 0.66175002
0.21456842 0.1214196 0.66199994
0.22556965 0.12118844 0.66094452
0.23335443 0.12103646 0.66187507
0.24381818 0.12680203 0.66833335
-0.38188356 0.13163075 0.66360009
-0.37541902 0.13091987 0.66147059
-0.36550254 0.13060156 0.66150004
-0.35580063 0.13042708 0.6615001
-0.34467825 0.13021219 0.66262507
-0.3342877 0.13105799 0.66233337
-0.32534763 0.13124914 0.66421884
-0.31491026 0.13106894 0.66350001
-0.3047266 0.13115738 0.66172004
-0.29562464 0.13097632 0.66133332
-0.28406018 0.13097841 0.66313636
-0.27579594 0.13085391 0.66133332
-0.26348677 0.1309779 0.66100007
-0.25255358 0.13120508 0.66146159
-0.24729304 0.13133405 0.66154552
-0.23636058 0.13120368 0.66057152
-0.2274814 0.13096721 0.66114289
-0.21469352 0.13016307 0.66237509
-0.20844908 0.13008937 0.66200006
-0.19355257 0.13008937 0.66200006
-0.1868795 0.13060145 0.66150004
-0.17640361 0.13081351 0.66138464
-0.16265464 0.13083763 0.66166669
-0.15824988 0.13008937 0.66200006
-0.14110871 0.13008937 0.66200006
-0.12403554 0.13016307 0.66237509
-0.1156709 0.13112411 0.66146672
-0.0009390848 0.11926377 0.67700005
0.000313953 0.1196161 0.67900002
0.019151134 0.1196161 0.67900002
0.031081349 0.1196161 0.67900002
0.057662707 0.1196161 0.67900008
0.065722793 0.11945608 0.67691666
0.072784618 0.11952801 0.67850006
0.087858997 0.11899227 0.67783338
0.095015138 0.11881898 0.67741179
0.10426754 0.11918877 0.67800003
0.11558142 0.11948057 0.67744446
0.12453046 0.11900043 0.67589486
0.13515371 0.11895818 0.67652947
0.14420962 0.1189865 0.6773333
0.15649159 0.11882491 0.6758182
0.1647459 0.11823925 0.67487097
0.17466161 0.11827375 0.67506456
0.18508539 0.11824542 0.67445171
0.19521224 0.11817385 0.67438227
0.20505258 0.1171574 0.674375
0.2146894 0.11669053 0.67630434
0.22470748 0.11659785 0.67534494
0.23290952 0.11637318 0.67568755
-0.38079241 0.1263046 0.67450005
-0.37476876 0.12659781 0.67464298
-0.36516318 0.12636988 0.67465639
-0.35515019 0.12635176 0.67457151
-0.34517601 0.12690361 0.67437506
-0.33498693 0.12663139 0.67468405
-0.32468629 0.12683979 0.67435473
-0.31507868 0.12675056 0.67473531
-0.30485269 0.12669624 0.67393333
-0.29464841 0.1259129 0.67471427
-0.28505769 0.12608652 0.67396885
-0.27482802 0.12535262 0.67456412
-0.26547933 0.12584813 0.67423528
-0.25553182 0.12563944 0.67439407
-0.24439979 0.12542284 0.6742425
-0.23468018 0.12485499 0.67455554
-0.22488989 0.12531844 0.67477149
-0.21520741 0.12481328 0.67476761
-0.20470098 0.12537488 0.67433345
-0.19513845 0.12519629 0.67527509
-0.18490632 0.12477841 0.67479408
-0.17559983 0.12529421 0.67457575
-0.16433939 0.12518935 0.67396879
-0.15540797 0.12533186 0.67388558
-0.14529175 0.12498914 0.67397302
-0.13472812 0.12493464 0.67490625
-0.12478698 0.12483335 0.67440546
-0.11482149 0.12466942 0.67346156
-0.10526062 0.12464918 0.67400002
-0.094606668 0.12462897 0.67528564
-0.085188583 0.12406414 0.6745556
-0.074574977 0.12373361 0.67486125
-0.064857513 0.12405567 0.67391425
-0.055349082 0.12331437 0.67469698
-0.045516692 0.12286542 0.67475867
-0.034994468 0.12312825 0.67488575
-0.02527814 0.12264049 0.67495
-0.015294181 0.12264947 0.67499989
-0.0053202785 0.12214331 0.67417145
0.0044223848 0.12228572 0.67410815
0.015012245 0.12167006 0.67449993
0.024515491 0.12259886 0.67435139
0.034294497 0.12237755 0.67443252
0.044941071 0.12139531 0.67388469
0.054980155 0.12165625 0.67386651
0.064402066 0.12115513 0.67261904
0.074842118 0.12113518 0.67349988
0.084870957 0.1217622 0.67364532
0.094337784 0.12145845 0.67307138
0.10490776 0.12122941 0.67296153
0.11467706 0.12095706 0.67313641
0.12624747 0.12100597 0.67178571
0.13544986 0.12115885 0.67326313
0.14525625 0.12100851 0.67315793
0.15355027 0.12083969 0.67238462
0.16140144 0.12050895 0.67000002
0.17193437 0.12050895 0.67000002
0.2439875 0.12555924 0.67050004
-0.23126917 0.11992913 0.68800002
-0.22431991 0.11979754 0.68580008
-0.21853858 0.11989537 0.68599999
-0.20359319 0.11992913 0.68800002
-0.19516985 0.11967131 0.68733341
-0.18716137 0.11949033 0.68757147
-0.16001154 0.11992913 0.68800002
-0.15683039 0.11992913 0.68800002
-0.14499655 0.11992912 0.68800002
-0.13532697 0.11967427 0.68800008
-0.12378679 0.11969727 0.6877144
-0.11409817 0.11966089 0.68737507
-0.10405832 0.11919541 0.68683332
-0.094598427 0.11892138 0.68627769
-0.087489486 0.1191638 0.68627268
-0.075038508 0.11915702 0.68746674
-0.063123517 0.11938299 0.68800008
-0.054949436 0.11910746 0.68693751
-0.044277042 0.11871986 0.68690002
-0.03439524 0.11883029 0.68657148
-0.02498568 0.11858802 0.6839667
-0.015210117 0.11847306 0.68353134
-0.0055679702 0.11835504 0.68353134
0.0048877276 0.11854448 0.68406445
0.015297635 0.11796749 0.68517941
0.025454635 0.1177611 0.68442863
0.035323199 0.1183479 0.68330002
0.045106553 0.11859534 0.68473345
0.055081554 0.11737316 0.68445218
0.064944141 0.11671665 0.68451273
0.075150289 0.11714415 0.68416661
0.084421962 0.11727917 0.68476921
0.0956432 0.11637417 0.68441385
0.10515093 0.11636794 0.68423682
0.11516763 0.1167504 0.68394881
0.12481719 0.11627212 0.68491429
0.13460797 0.11608658 0.68434215
0.14524023 0.11569709 0.68342108
0.15429902 0.11602371 0.68387181
0.16527127 0.1150512 0.68448502
0.17503543 0.11494449 0.68487489
0.18498363 0.11461832 0.684825
0.19479248 0.11410897 0.6842196
0.20496249 0.11405093 0.68439287
0.21493988 0.11342337 0.68388581
0.22504245 0.11302526 0.68394744
0.23286408 0.11342072 0.68436366
-0.38204411 0.12341674 0.68480003
-0.37528247 0.12283766 0.68425632
-0.36545193 0.1225605 0.68405712
-0.35502014 0.12299985 0.68463153
-0.34524906 0.1231495 0.68413895
-0.33538181 0.12284917 0.68405706
-0.32488036 0.12324374 0.68410802
-0.31486958 0.12300007 0.68427026
-0.30476648 0.12294733 0.68323088
-0.29535955 0.12253739 0.68506676
-0.28462785 0.12282923 0.6840812
-0.27436426 0.12177034 0.6852259
-0.26482335 0.12272599 0.68479311
-0.25447384 0.12253513 0.68451434
-0.24547993 0.12248512 0.68414825
-0.23525606 0.12150034 0.68492585
-0.22616786 0.12220964 0.68227994
-0.21424921 0.12140881 0.68432146
-0.20519915 0.12174379 0.68416142
-0.19496627 0.12178627 0.68414295
-0.18462355 0.12154515 0.68427587
-0.17470504 0.12179184 0.68519437
-0.1654838 0.12207996 0.68416661
-0.15451266 0.12191467 0.68405896
-0.14475897 0.12171669 0.68429637
-0.13537093 0.12190631 0.68284011
-0.12554917 0.12146104 0.68342298
-0.11539817 0.121393 0.68283337
-0.10506181 0.12146329 0.68233329
-0.095450081 0.12129317 0.68171436
-0.083982222 0.12078064 0.68394119
-0.07534495 0.12095979 0.68305552
-0.065440871 0.12135432 0.68431818
-0.054830614 0.12069652 0.68179989
-0.044844296 0.12074374 0.68206662
-0.037419498 0.12109672 0.68240011
0.024838816 0.12104993 0.68000001
0.047616363 0.12014459 0.68200004
0.16919477 0.10989603 0.69700003
0.17376041 0.10949759 0.69745457
0.18493812 0.10925154 0.69673336
0.19533855 0.1094976 0.69745463
0.20748313 0.10938761 0.69787508
0.21469729 0.10931423 0.69713336
0.22516902 0.1091494 0.69611764
0.23215082 0.10890074 0.69560009
-0.38150075 0.11887529 0.69550008
-0.37443629 0.11859687 0.6951251
-0.36459202 0.11863828 0.6956957
-0.35518488 0.1193786 0.69570589
-0.34445766 0.11886475 0.69633341
-0.33581853 0.11929588 0.69769996
-0.32418823 0.11879858 0.69672227
-0.31522843 0.11886379 0.69600004
-0.30477357 0.11856698 0.69563651
-0.2952134 0.11813383 0.6952759
-0.28534171 0.11873552 0.69560874
-0.27478486 0.11849786 0.69454175
-0.26506469 0.11874676 0.69600004
-0.25481859 0.11854044 0.69513643
-0.24493995 0.11833447 0.69593114
-0.23513079 0.11773172 0.69541937
-0.22538237 0.11806278 0.69434482
-0.21462901 0.11806969 0.6945554
-0.20473906 0.11777095 0.69406247
-0.19478792 0.11794727 0.69404006
-0.18495424 0.11825329 0.69432014
-0.17436929 0.11783127 0.69414288
-0.16548546 0.11804251 0.69457138
-0.15513265 0.11787134 0.69465643
-0.14469847 0.11750162 0.69426483
-0.13496134 0.11695191 0.69386113
-0.12534748 0.11709815 0.69429731
-0.11533105 0.11787373 0.69427592
-0.10503015 0.117235 0.69468981
-0.094961733 0.11635534 0.6939311
-0.084680244 0.1169567 0.69442427
-0.074868321 0.11663949 0.69496894
-0.065077022 0.11688261 0.69408345
-0.054396909 0.11549598 0.69410014
-0.045589916 0.11615083 0.69367868
-0.035093091 0.11574466 0.69439387
-0.025385184 0.1151722 0.69484359
-0.015241171 0.11528665 0.69391662
-0.0050615612 0.11464286 0.6939168
0.0048146592 0.11454536 0.69397509
0.014470003 0.11430006 0.6954062
0.024778072 0.11383085 0.69475019
0.035258286 0.11467095 0.69410813
0.044588789 0.11451653 0.69380569
0.055476867 0.11363566 0.69534624
0.064595774 0.11337408 0.69562507
0.075166054 0.11321059 0.69527584
0.084919654 0.11324028 0.69509673
0.09442988 0.113446 0.69508815
0.10515641 0.11253601 0.69428581
0.11516519 0.11308161 0.6944828
0.12529923 0.11230483 0.69341952
0.13497455 0.11225572 0.69431049
0.14425234 0.11259289 0.69430441
0.15536059 0.11203296 0.69454557
0.16504799 0.11159727 0.694345
0.17566936 0.11182477 0.69266671
0.18445735 0.11135516 0.69272214
0.19491978 0.11106878 0.69253343
0.20477524 0.11131781 0.69336015
0.21498708 0.11099195 0.69235718
0.2242021 0.11063407 0.69136363
0.2306653 0.1100685 0.69000006
0.24023648 0.11517313 0.69000006
-0.38125178 0.12027775 0.69000006
-0.37450179 0.1203649 0.69050002
-0.36448702 0.12043028 0.69087499
-0.35470998 0.12065196 0.69133329
-0.34536141 0.12065928 0.69114286
-0.33432043 0.12078232 0.69365019
-0.32648334 0.12083071 0.69318181
-0.31482145 0.12049565 0.69125003
-0.30474624 0.12030266 0.69014293
-0.29553545 0.12045207 0.69099998
-0.28511027 0.12036491 0.69050002
-0.27176401 0.12039396 0.69066668
-0.26501223 0.12051743 0.69137502
-0.25441182 0.12034313 0.69037509
-0.24500778 0.12042715 0.69085711
-0.23959839 0.12027775 0.69000006
-0.2127991 0.12027775 0.69000006
-0.16685747 0.12027775 0.69000006
-0.06667918 0.12027775 0.69000006
-0.090151675 0.10916548 0.70900005
-0.088184729 0.10916548 0.70900005
-0.014825808 0.10921978 0.70814288
-0.0062120156 0.10957829 0.70660001
0.0081826607 0.10939482 0.7076667
0.015649686 0.10935261 0.70626658
0.025130972 0.10933261 0.70585716
0.036802001 0.10936315 0.7069
0.045181487 0.10907272 0.70763642
0.05480307 0.10928028 0.70580006
0.064940646 0.10931611 0.70575005
0.07506714 0.10934679 0.70566666
0.084820196 0.10926977 0.70573342
0.094912 0.10925778 0.70537502
0.10616551 0.10864644 0.70565003
0.11407895 0.10865146 0.7056843
0.12544915 0.10830279 0.70524997
0.13419648 0.10856622 0.70466655
0.14580859 0.10837679 0.70619226
0.15531757 0.10800206 0.70571882
0.16547182 0.10779894 0.7046563
0.17515634 0.10680643 0.70467639
0.18497325 0.10709502 0.70403862
0.19514474 0.10688677 0.70424253
0.2045569 0.10667896 0.70456761
0.21485166 0.10644634 0.7040624
0.22515741 0.10616773 0.70467567
0.23159766 0.10626134 0.70369995
-0.3822552 0.1160239 0.70466673
-0.37487388 0.11561742 0.70440644
-0.36456448 0.11565444 0.70462495
-0.35485238 0.11633037 0.70438468
-0.34471306 0.11582499 0.70477438
-0.33498609 0.11640999 0.70438892
-0.32515839 0.11579879 0.70482749
-0.31493708 0.11581963 0.70447063
-0.30528128 0.11555767 0.70448142
-0.29489583 0.11528993 0.70509678
-0.2848126 0.11584935 0.70467854
-0.27490836 0.11550651 0.70413798
-0.26493645 0.11488988 0.70415795
-0.25523424 0.11505316 0.70452636
-0.24566866 0.11464352 0.70414275
-0.23481815 0.11419656 0.70432246
-0.22462146 0.11511695 0.70426673
-0.21545212 0.11499185 0.7051
-0.20456485 0.11424892 0.70468968
-0.19555464 0.11501674 0.70470989
-0.18474816 0.11518152 0.70455885
-0.17522161 0.11377154 0.70421618
-0.16556378 0.11465307 0.7044242
-0.15503278 0.11445345 0.70512909
-0.14532341 0.11397643 0.70440012
-0.13484338 0.11281569 0.70478797
-0.12504049 0.11396308 0.70432001
-0.1151268 0.11439312 0.70403039
-0.10544291 0.11289028 0.70475602
-0.094780922 0.11333971 0.70368004
-0.085571609 0.11270394 0.70456761
-0.074310444 0.11268488 0.70490628
-0.064890966 0.112713 0.70439392
-0.055737484 0.11177826 0.7055518
-0.044972479 0.11220858 0.70413524
-0.035117678 0.11213535 0.70424259
-0.024430942 0.11186613 0.70437503
-0.014510865 0.11205936 0.70368588
-0.0050840876 0.11123911 0.70336848
0.0047972267 0.11106014 0.70404357
0.015013389 0.11142238 0.7032941
0.024899734 0.11128983 0.70241672
0.034284964 0.11119403 0.70360005
0.04551265 0.11148321 0.70421731
0.053662993 0.11194833 0.70231253
0.065399185 0.11127977 0.70261538
0.074185535 0.11122152 0.7026667
0.085886054 0.11102314 0.70190907
0.095796213 0.11093704 0.70177776
0.10404654 0.11080941 0.70280004
0.11482473 0.11114221 0.70216674
0.12475909 0.11050419 0.70085716
0.13626209 0.11036905 0.70000005
0.14539653 0.11086547 0.70090908
0.15287685 0.11044788 0.70050001
0.1640971 0.11036905 0.70000005
-0.36336571 0.1093754 0.71900004
-0.31283361 0.1093754 0.71900004
-0.30464286 0.10929935 0.71850008
-0.28224838 0.1093754 0.71900004
-0.25565255 0.1093754 0.71900004
-0.2436287 0.10935006 0.71883339
-0.23563507 0.10879692 0.7181111
-0.22368614 0.10935006 0.71883339
-0.21500972 0.10933195 0.7187143
-0.20581795 0.1089021 0.71827275
-0.19913638 0.1093754 0.71900004
-0.18366058 0.10934498 0.71880007
-0.17361917 0.10913862 0.71745455
-0.16508991 0.10888518 0.71839994
-0.15494873 0.10884645 0.71758831
-0.14514759 0.10895117 0.71776479
-0.13501306 0.10900386 0.71618187
-0.12508631 0.10892449 0.71643496
-0.11512141 0.1090385 0.71640921
-0.10463632 0.10909342 0.71677279
-0.095210522 0.10832421 0.71537495
-0.085274875 0.10822207 0.71579176
-0.07494121 0.1086646 0.71513635
-0.064797893 0.10832771 0.7151379
-0.054963138 0.10790714 0.71417242
-0.045308664 0.10880905 0.71529174
-0.034716796 0.10861766 0.71512491
-0.024948116 0.10803301 0.71410352
-0.014909443 0.10752776 0.7142309
-0.0047026975 0.10789621 0.71465403
0.004689259 0.10784873 0.71419984
0.01500549 0.10647095 0.71509683
0.025069308 0.10709277 0.71403855
0.035017028 0.10638443 0.71430784
0.044646733 0.10657038 0.71411121
0.055224136 0.10626527 0.7139715
0.064873546 0.10605858 0.71535128
0.074633017 0.10657714 0.7142188
0.085493855 0.10656036 0.71493739
0.095378198 0.10617378 0.71462864
0.10459182 0.10586651 0.71466655
0.11567265 0.10568549 0.7142058
0.12457938 0.10529722 0.71496165
0.13549857 0.10569525 0.71426445
0.14458047 0.10475305 0.7144866
0.15478995 0.10426055 0.71489286
0.16521735 0.10443729 0.71435988
0.17534849 0.10292105 0.7146551
0.18538851 0.10353076 0.71312499
0.19538091 0.10315336 0.71378559
0.20476088 0.10219979 0.7147243
0.21480934 0.10213888 0.71494877
0.22493522 0.10212988 0.71451861
0.23267229 0.10314868 0.71459997
-0.38275805 0.11267523 0.71466666
-0.37531522 0.11236649 0.71452177
-0.36506221 0.11194918 0.71371871
-0.35517871 0.11197013 0.71466666
-0.34504998 0.1125161 0.71364015
-0.33495483 0.11284403 0.71453583
-0.32474881 0.11214722 0.71503705
-0.31461531 0.11191053 0.71399999
-0.30515423 0.11183836 0.71399999
-0.29510325 0.11198167 0.71471882
-0.28514621 0.11206665 0.71368968
-0.27555552 0.11189157 0.71429038
-0.2648221 0.11136347 0.7143479
-0.25479457 0.11122747 0.7142272
-0.24502148 0.11157141 0.71368009
-0.23473763 0.11115556 0.71337509
-0.22495775 0.11174428 0.71353573
-0.21459106 0.11146695 0.71342307
-0.20503053 0.11119189 0.71322733
-0.19479024 0.1117602 0.7143448
-0.18516906 0.11137299 0.71330434
-0.1754953 0.11057306 0.71353847
-0.16490842 0.11156905 0.71342319
-0.15519597 0.11122844 0.71294737
-0.14513157 0.11116607 0.71175003
-0.13497472 0.11067155 0.71025002
-0.1251879 0.11138716 0.71062511
-0.11529737 0.11135634 0.7104286
-0.100784 0.11128917 0.71000004
-0.096233755 0.11134113 0.71033335
-0.08153253 0.11094147 0.71200007
-0.078497969 0.11134142 0.71033335
-0.067298763 0.11128917 0.71000004
0.091894373 0.099972993 0.72800004
0.12818885 0.099927217 0.72766668
0.13546379 0.099835664 0.72700006
0.14549217 0.099389993 0.72670001
0.15484039 0.099757202 0.72642857
0.164699 0.099701129 0.72711116
0.17507027 0.098475665 0.72600007
0.18435885 0.098578617 0.72655553
0.19535732 0.098576404 0.72721756
0.20496078 0.098391593 0.72628582
0.21536811 0.09863466 0.72666669
0.22530226 0.098244816 0.72560012
0.23158066 0.097324044 0.72833329
-0.3829096 0.10919933 0.7258001
-0.37459022 0.10867705 0.72478259
-0.36468384 0.10784197 0.72488457
-0.3549135 0.10890246 0.72473085
-0.34454244 0.10839276 0.72546154
-0.33533195 0.10819793 0.72499996
-0.32526949 0.10819589 0.7245
-0.31523561 0.10804682 0.72453856
-0.304856 0.10811227 0.72513336
-0.29514301 0.10799197 0.72553331
-0.28526652 0.10748284 0.72451729
-0.27484185 0.10748284 0.72445959
-0.26514661 0.1082421 0.72434497
-0.25479975 0.10734487 0.72445184
-0.24551667 0.10754025 0.72458339
-0.23484038 0.10714874 0.72438461
-0.22498944 0.10686193 0.72425014
-0.21517694 0.10704128 0.72448003
-0.20477971 0.10720065 0.7254231
-0.19479077 0.10814832 0.72385722
-0.18431762 0.10741048 0.72511542
-0.17497312 0.10669167 0.72442305
-0.1649421 0.10681936 0.72472417
-0.15455686 0.10627582 0.72509092
-0.14488286 0.10646418 0.72562504
-0.13507581 0.10624941 0.72491306
-0.12524126 0.10611782 0.72554165
-0.11460349 0.10588502 0.72480649
-0.10493846 0.10560532 0.7251001
-0.094691999 0.10527331 0.72448015
-0.084845282 0.10496725 0.7246896
-0.074870452 0.1054182 0.72382164
-0.06540785 0.10522272 0.72547829
-0.055069499 0.10491067 0.7245217
-0.044896133 0.10564242 0.72485185
-0.034794189 0.10544216 0.72382772
-0.02553484 0.10428682 0.7239601
-0.015073425 0.10485541 0.72454172
-0.005013362 0.10459068 0.7227143
0.0050190976 0.10340758 0.72382486
0.014935542 0.10272861 0.72543997
0.024914119 0.10337073 0.72455275
0.035020098 0.10238057 0.72513634
0.045325488 0.10306622 0.72445172
0.05445338 0.10248816 0.72457701
0.064908072 0.10225012 0.72463638
0.075242192 0.10279646 0.72503453
0.084549479 0.1028635 0.72355163
0.094488204 0.10210859 0.72441381
0.10533232 0.10197692 0.72433347
0.11481421 0.10191571 0.7252692
0.12497092 0.10205097 0.72322732
0.13476974 0.10178424 0.72217393
0.14494239 0.10126945 0.72200006
0.15534335 0.10118219 0.72126675
0.16511066 0.10183735 0.72300011
0.17379463 0.10086469 0.72090006
0.18480563 0.10087936 0.72115386
0.19488691 0.10083047 0.72050005
0.2074032 0.10020603 0.72000003
0.22393018 0.10047436 0.72033334
-0.38309002 0.11077023 0.72233337
-0.37758109 0.11097464 0.72075003
-0.34528816 0.11087841 0.72012508
-0.3360621 0.11091048 0.72033334
-0.32458764 0.11085916 0.72000003
-0.11105105 0.09875001 0.73900002
-0.097619243 0.099277712 0.73857147
-0.08189787 0.099143282 0.73757142
-0.077248812 0.098969549 0.73859996
-0.064225554 0.099239536 0.73828572
-0.054677565 0.099453613 0.73842853
-0.042675704 0.099348955 0.73837501
-0.035162043 0.099338934 0.73829997
-0.02411879 0.099434927 0.73784614
-0.015010484 0.099389233 0.73783332
-0.0047088792 0.099557728 0.73790002
0.0056947819 0.099251054 0.73692858
0.015074181 0.09951745 0.73759997
0.024406159 0.098640852 0.73650002
0.035245527 0.098370716 0.73573917
0.04523325 0.098426685 0.73552638
0.055216942 0.098529607 0.73566675
0.064581282 0.098172784 0.73512512
0.075010747 0.098351642 0.73650014
0.085023895 0.09837351 0.73527282
0.095948502 0.097495131 0.73546445
0.10489295 0.097433038 0.73541969
0.11506554 0.097799338 0.73445839
0.12482857 0.097188234 0.736
0.13533178 0.097036809 0.73500025
0.14498407 0.097381145 0.73340899
0.15478179 0.097618334 0.73396307
0.16583712 0.096959069 0.73446679
0.17478505 0.095766038 0.73469228
0.18558919 0.095677488 0.73425007
0.19489743 0.095692955 0.735174
0.20492402 0.095493965 0.73500007
0.21459045 0.095788158 0.73500001
0.22484338 0.095194809 0.73503709
0.23038881 0.094945118 0.73600006
-0.38322976 0.1065499 0.73357153
-0.37432057 0.10491873 0.7343846
-0.36471254 0.10437654 0.73503369
-0.35496411 0.10539258 0.73390013
-0.34476495 0.10526376 0.73478961
-0.33535698 0.10444447 0.73529637
-0.32532451 0.10461289 0.7347039
-0.31536031 0.1045114 0.73540753
-0.30490813 0.10419492 0.73388898
-0.29516873 0.10414082 0.7349261
-0.28487855 0.10397789 0.73464006
-0.2747975 0.10357995 0.73534781
-0.26548588 0.10408548 0.73390633
-0.25469872 0.10379668 0.73412001
-0.24537987 0.10422049 0.73477781
-0.23522191 0.10394841 0.73520011
-0.22523385 0.10371157 0.73452389
-0.21554065 0.10361808 0.73478585
-0.20505162 0.10366743 0.73484379
-0.19451168 0.10448236 0.73409683
-0.1853974 0.10369942 0.73400003
-0.17512365 0.10287771 0.73486209
-0.1651735 0.10313243 0.73500007
-0.15483102 0.10273825 0.73351723
-0.14502236 0.10276747 0.73406899
-0.13509937 0.10284793 0.73414272
-0.12505451 0.10269855 0.73410732
-0.11493131 0.10208303 0.73433346
-0.10495368 0.10189673 0.73420841
-0.095080674 0.10173903 0.73266667
-0.084880196 0.10177258 0.73350006
-0.074930012 0.10166234 0.73328584
-0.064928383 0.10192728 0.73396009
-0.055151585 0.10166445 0.73323995
-0.045102846 0.10227808 0.73296005
-0.035663776 0.10200655 0.73337507
-0.024756024 0.10166734 0.73223531
-0.015216143 0.10178722 0.73137492
-0.0050779185 0.10187975 0.73204756
0.0050772307 0.10055662 0.73225003
0.015256016 0.10067923 0.73314285
0.024702942 0.10050267 0.73185718
0.034798499 0.10035063 0.73074996
0.044956181 0.10038497 0.73100001
0.055080894 0.1003678 0.73087496
0.065169327 0.10028688 0.7302857
0.07481613 0.1005419 0.73214287
0.084806733 0.10035063 0.73075002
0.097591914 0.10029342 0.73033333
0.10369444 0.10031631 0.73049998
0.11712436 0.10024764 0.73000002
0.12319996 0.10024764 0.73000002
-0.39347029 0.11120433 0.73550004
0.22914408 0.087603986 0.74300003
0.23167259 0.08778131 0.74450004
-0.38148019 0.099952653 0.74800003
-0.3744126 0.099349998 0.74659997
-0.36687168 0.099930376 0.74783343
-0.35173649 0.099952653 0.74800003
-0.3453804 0.099914469 0.7477144
-0.33474252 0.099835724 0.74712509
-0.32294515 0.099819027 0.74700004
-0.31640482 0.099863566 0.74733335
-0.30527529 0.099914476 0.74771434
-0.29531339 0.099819019 0.7470001
-0.28565672 0.099570572 0.74744451
-0.27366844 0.099357277 0.74700004
-0.26416519 0.099315792 0.7470001
-0.25499058 0.099124886 0.74733341
-0.2452071 0.099159546 0.74684626
-0.23489451 0.098994039 0.74600005
-0.22529677 0.09961246 0.74675006
-0.21429662 0.099377081 0.74680007
-0.20495622 0.098992378 0.74633336
-0.19474795 0.098855726 0.74600005
-0.18455227 0.099204108 0.74550009
-0.17518149 0.09877561 0.74435723
-0.16538201 0.098915577 0.74506664
-0.15400746 0.098101012 0.74547619
-0.14486744 0.097849265 0.74621731
-0.13527033 0.097652726 0.74632156
-0.12591514 0.097860783 0.74560004
-0.11485928 0.097129524 0.74613786
-0.10547081 0.09782663 0.7454583
-0.095356658 0.097616971 0.74528569
-0.085152306 0.09796048 0.74479997
-0.074728973 0.097241908 0.74537498
-0.064860828 0.097755507 0.74515802
-0.0549988 0.097350188 0.74523079
-0.045335293 0.097110108 0.7457599
-0.035292011 0.097035743 0.74495453
-0.025391275 0.096787803 0.74462068
-0.014151058 0.096730374 0.74496007
-0.0056056594 0.096827567 0.74453562
0.0046052895 0.096361414 0.74468768
0.015035104 0.096144408 0.74475002
0.025815833 0.095850274 0.74449998
0.034583434 0.095074505 0.74408007
0.044937596 0.095586807 0.74420005
0.05518432 0.095129743 0.7438966
0.064990662 0.094726503 0.74366665
0.075430721 0.095207587 0.74467993
0.085110679 0.09494739 0.74384606
0.094720408 0.094855055 0.74440008
0.10632603 0.093754284 0.74377275
0.11527216 0.094307825 0.74367988
0.12543356 0.093590409 0.74530005
0.13435993 0.093062982 0.74515992
0.14508024 0.093603767 0.74424243
0.15552689 0.093671948 0.74418741
0.16423212 0.093346693 0.74440724
0.17505474 0.092633627 0.74479175
0.1849978 0.092209555 0.74416679
0.19487388 0.092558697 0.74419051
0.20527151 0.092161879 0.74417835
0.21517722 0.091919474 0.74460715
0.22455695 0.091561429 0.74426931
0.23189476 0.093787797 0.74300003
-0.39309531 0.10814294 0.74250001
-0.3834632 0.10282228 0.74352628
-0.37515259 0.10170401 0.74250007
-0.36469057 0.10144836 0.74510527
-0.35511053 0.10200609 0.74493098
-0.34562916 0.10232337 0.74364996
-0.33480737 0.10161694 0.74411762
-0.3254452 0.10166241 0.74434996
-0.31483823 0.10147841 0.7439999
-0.3049272 0.1014126 0.74349999
-0.29507363 0.10133327 0.74291676
-0.2852695 0.10146446 0.74415797
-0.27588025 0.10138367 0.7444616
-0.26480633 0.10132157 0.74400002
-0.25481489 0.10132578 0.74253339
-0.24504051 0.10138305 0.74328578
-0.23478447 0.10124382 0.74260008
-0.22512791 0.10139246 0.74335712
-0.21490985 0.10143441 0.74366671
-0.20458339 0.10105693 0.74318194
-0.19521391 0.10120793 0.74199998
-0.18530717 0.1010948 0.74254549
-0.17531367 0.10052323 0.74200004
-0.16530152 0.10070541 0.74222225
-0.15443239 0.10032969 0.7405715
-0.14506808 0.10048451 0.74171436
-0.13549237 0.10050387 0.74185717
-0.12503311 0.10037082 0.74087512
-0.11630686 0.10052322 0.74200004
-0.10649738 0.10033356 0.74060005
-0.092040479 0.10025227 0.74000001
-0.088618904 0.10025227 0.74000001
-0.071511 0.10025227 0.74000001
-0.06945806 0.10025227 0.74000001
-0.050297216 0.10025227 0.74000001
-0.047581989 0.10029743 0.74033338
-0.0080504213 0.089954704 0.75700003
0.0045484542 0.089903779 0.75657141
0.013638691 0.089875489 0.75633335
0.024151264 0.089954704 0.75700003
0.036115129 0.08960335 0.75666672
0.042610221 0.089627162 0.75660002
0.057078108 0.089526393 0.75733334
0.07460314 0.089663178 0.75750005
0.089954704 0.089954704 0.75700003
0.09975522 0.089954704 0.75700003
0.10805979 0.089875489 0.75633335
0.11577942 0.089399666 0.75725007
0.12411042 0.089349538 0.75727272
0.13519506 0.089545466 0.75709999
0.14534785 0.089306101 0.75607705
0.15528814 0.089151807 0.75653338
0.16543142 0.089187033 0.7564286
0.17473319 0.088533044 0.75557894
0.18439235 0.088243529 0.75490898
0.19490662 0.08836887 0.75491309
0.20512356 0.088307485 0.75490469
0.21492717 0.088398859 0.75509995
0.2246729 0.087645657 0.75353575
-0.38365105 0.098324172 0.75500005
-0.37475768 0.097349934 0.75466675
-0.36441681 0.097682707 0.75544459
-0.35446018 0.097429179 0.75528562
-0.34478283 0.097343892 0.75439996
-0.33507332 0.0972986 0.75445151
-0.32472506 0.09730874 0.75435716
-0.31517938 0.0975089 0.75534499
-0.3047643 0.097397521 0.75439996
-0.29525775 0.097298019 0.75499988
-0.28489515 0.097908691 0.75409532
-0.27430207 0.097375177 0.75486374
-0.26482043 0.096887298 0.75460875
-0.25469106 0.096657649 0.75415021
-0.24492182 0.096539423 0.75427282
-0.23511645 0.096752502 0.7549001
-0.2249005 0.097155169 0.75372428
-0.215115 0.096673325 0.75442308
-0.20487665 0.096155226 0.75384009
-0.19447646 0.095166415 0.75397158
-0.18514928 0.095901243 0.75427771
-0.17463465 0.095154993 0.75388879
-0.16464525 0.095022961 0.75282335
-0.15556163 0.094630621 0.75313783
-0.14513741 0.094336204 0.75246155
-0.13507251 0.093774885 0.75345457
-0.12411045 0.094436407 0.75284618
-0.11431772 0.093257152 0.75355554
-0.10505545 0.094595715 0.75395465
-0.094211154 0.094505735 0.7538572
-0.084929034 0.094621606 0.75429034
-0.074803397 0.093185887 0.75389659
-0.064982042 0.09436129 0.75455564
-0.055004321 0.093244307 0.75403857
-0.045227405 0.093095846 0.75433338
-0.034673221 0.093389191 0.75368732
-0.024584878 0.092829943 0.75400007
-0.015151137 0.092710815 0.75472409
-0.005123395 0.092525527 0.75348157
0.0045237062 0.092163697 0.75219053
0.01560402 0.091910325 0.7525
0.025268061 0.092030376 0.75427586
0.035131834 0.091942161 0.75227773
0.045284599 0.091952629 0.75333339
0.053879563 0.091692649 0.7532382
0.064947456 0.091701396 0.75385725
0.074682467 0.091776453 0.75400019
0.085405469 0.091619447 0.75450003
0.094933391 0.091759786 0.75461537
0.104147 0.091110617 0.75364709
0.11509083 0.091445997 0.75200003
0.12490571 0.091276996 0.75307143
0.13528429 0.09076862 0.75214291
0.14488129 0.090682425 0.75142854
0.1546727 0.090716891 0.75171429
0.16529562 0.090826802 0.75262499
0.17525817 0.090578973 0.75057143
0.18489486 0.090540186 0.75025004
0.19469485 0.090578973 0.75057143
0.20258719 0.090540186 0.75025004
-0.38654223 0.10077137 0.7506668
-0.30756527 0.0899584 0.76900005
-0.23431854 0.0899584 0.76900005
-0.2039731 0.089747839 0.76719999
-0.19850214 0.089841425 0.76800007
0.038044538 0.087360404 0.76620007
0.045813382 0.087836005 0.7647143
0.055161554 0.087612309 0.7645238
0.064783528 0.087878816 0.76600009
0.074765846 0.087908693 0.76420003
0.085424058 0.087743498 0.76560003
0.095269695 0.087406792 0.76470399
0.10484293 0.08746627 0.76385194
0.1149203 0.086879231 0.76437497
0.12547103 0.086166903 0.76471442
0.134859 0.087031528 0.764
0.14493118 0.086683035 0.76420838
0.15478864 0.086279593 0.76468009
0.16541076 0.086058579 0.76453865
0.1745929 0.085650928 0.76504773
0.184825 0.085166194 0.76431823
0.19507399 0.0851596 0.76368177
0.20491609 0.084997736 0.76280957
0.21498412 0.085192896 0.76395243
0.22402413 0.084508799 0.76350003
-0.38416591 0.094634868 0.76510531
-0.37470931 0.094327904 0.76410007
-0.36542818 0.09380658 0.76360875
-0.3548893 0.093528502 0.76386362
-0.34465709 0.093532659 0.76279998
-0.33550885 0.093639471 0.76477283
-0.32471612 0.093676575 0.76404345
-0.31431419 0.093908042 0.76443481
-0.30449256 0.093200073 0.76436007
-0.29464242 0.093732737 0.7650001
-0.28512225 0.094407491 0.76455563
-0.27554026 0.094043709 0.76466674
-0.26524267 0.093432136 0.76456517
-0.25454542 0.093290381 0.7630477
-0.24512577 0.093424901 0.76299989
-0.23508587 0.093184344 0.76396298
-0.22482963 0.093681835 0.76408702
-0.21520509 0.093249105 0.76393759
-0.20513469 0.092763029 0.76383328
-0.19702101 0.091610014 0.76500005
-0.18527187 0.093163282 0.76033336
-0.13494246 0.09195818 0.76200002
-0.12420934 0.091837496 0.76100004
-0.11083836 0.091837496 0.76100004
-0.10505278 0.092436559 0.76172733
-0.09530168 0.091785789 0.76057148
-0.086152367 0.091777153 0.76050013
-0.065500662 0.091723546 0.76342863
-0.055302776 0.091167636 0.76425004
-0.045134328 0.090783976 0.76250011
-0.034848783 0.090463981 0.76128578
-0.024960488 0.090345144 0.76028579
-0.017252851 0.090489447 0.7615
-0.0031664632 0.090400323 0.76075
0.065712817 0.090311199 0.76000005
0.08187747 0.090311199 0.76000005
0.16604786 0.079602115 0.77900004
0.20494843 0.079602115 0.77900004
0.22339082 0.07949993 0.778
-0.38323432 0.089601099 0.77825004
-0.3743009 0.089358509 0.7761429
-0.36485645 0.089506529 0.77742857
-0.3550525 0.089572318 0.77800006
-0.34428045 0.089391403 0.77642858
-0.33503279 0.089605212 0.77828568
-0.32429853 0.089424297 0.77671427
-0.31460562 0.089322872 0.77583337
-0.30522639 0.089309171 0.77571434
-0.29384375 0.088671491 0.77700001
-0.28489831 0.08831197 0.77735299
-0.2750285 0.088069677 0.77678943
-0.26452008 0.089190744 0.77625
-0.25577131 0.089085847 0.7765556
-0.24430679 0.08862371 0.77746171
-0.23527683 0.088001668 0.77685708
-0.22576204 0.08817181 0.77611774
-0.21474788 0.088412836 0.77731258
-0.20470089 0.088210471 0.7753334
-0.19794261 0.088260867 0.77633339
0.035172701 0.085614815 0.77475005
0.044710875 0.084827341 0.77472728
0.054918494 0.084341131 0.77445465
0.065347061 0.084230401 0.77428579
0.074742019 0.084527425 0.77466679
0.084585465 0.083977908 0.77442318
0.094736412 0.083535559 0.7742272
0.10539889 0.083047114 0.77485174
0.11492694 0.083558343 0.77391303
0.12507229 0.082780272 0.7750625
0.13481821 0.082747608 0.77403718
0.14526008 0.08283554 0.77480012
0.15514888 0.082571715 0.77495462
0.16439191 0.082228206 0.77392024
0.17548829 0.082381248 0.77500004
0.18463285 0.081991121 0.77438092
0.1950414 0.082096905 0.7747727
0.20502329 0.081935659 0.77385712
0.21526314 0.081880555 0.77395457
0.2241274 0.081517957 0.7726
-0.38338768 0.091282092 0.77420008
-0.37535396 0.091328807 0.77114284
-0.36564016 0.090963565 0.77150005
-0.35512489 0.091141045 0.77264714
-0.34431714 0.091031469 0.77253854
-0.33548608 0.091249995 0.77346158
-0.32497329 0.090963714 0.77149999
-0.31495875 0.090955615 0.77142859
-0.30278879 0.09071248 0.77087498
-0.29498243 0.090955473 0.77142859
-0.28533724 0.091065302 0.77235729
-0.27537945 0.090913907 0.77153844
-0.26456901 0.090859346 0.77107692
-0.25545934 0.090776302 0.7709167
-0.24488743 0.090896316 0.77092868
-0.23358637 0.090608895 0.7705
-0.22492588 0.090896711 0.77092868
-0.21506529 0.090946987 0.77135712
-0.20898913 0.090075381 0.77000004
-0.19569224 0.091231674 0.77375001
0.049979564 0.079164706 0.78900003
0.054329406 0.079124577 0.78860009
0.068949908 0.079164706 0.78900003
0.074731715 0.079107367 0.7884286
0.084911771 0.079078712 0.78814298
0.095059 0.079035707 0.78771436
0.10523203 0.078575246 0.78468412
0.11448365 0.078581728 0.78683347
0.12494836 0.078320406 0.78785717
0.13482448 0.078716055 0.78457153
0.14529295 0.078554317 0.78447372
0.1547363 0.078563191 0.78593332
0.16437066 0.078269146 0.7843529
0.17510018 0.078664437 0.78405005
0.18479148 0.078189537 0.7839601
0.1949338 0.078171201 0.78600007
0.20477523 0.077653728 0.78470367
0.21516697 0.078009188 0.78396302
0.22338083 0.077117391 0.78472221
0.23032498 0.079908669 0.78200006
-0.38400957 0.087448888 0.78481257
-0.37487161 0.087392598 0.78365004
-0.36481306 0.087363772 0.78460878
-0.3550218 0.08702974 0.7836501
-0.34477326 0.087194763 0.78308696
-0.33527926 0.087477446 0.7843684
-0.32429397 0.086571172 0.78418505
-0.31424007 0.086443774 0.78389651
-0.30477309 0.086042166 0.78484845
-0.2954616 0.085644089 0.78527588
-0.28471971 0.085182287 0.78486955
-0.27409118 0.085048273 0.78516006
-0.26514867 0.086633608 0.78373903
-0.25501502 0.085875675 0.78496861
-0.24617019 0.085612267 0.78431821
-0.23545706 0.085255884 0.78464288
-0.22438785 0.086002849 0.7842381
-0.21534342 0.085934609 0.78506249
-0.20439452 0.086013108 0.78406674
-0.19412936 0.085809179 0.78515643
-0.18458483 0.085937455 0.78513336
-0.17462818 0.086616941 0.78545839
-0.16520575 0.086435318 0.78612006
-0.15538006 0.086434588 0.78810012
-0.1452772 0.086141147 0.78608686
-0.13516772 0.085679837 0.78737921
-0.12950909 0.086460985 0.78900003
-0.1145517 0.083907299 0.78900003
-0.10032394 0.085001737 0.78900003
-0.095737703 0.08458481 0.78900003
-0.082083225 0.085001737 0.78900003
-0.073350683 0.084278382 0.78791672
-0.067595884 0.08386001 0.7874167
-0.056141555 0.082869552 0.78890914
-0.049249932 0.083542481 0.78900003
-0.033198103 0.083125554 0.78900003
-0.023646601 0.082879178 0.78900009
-0.016004052 0.081887022 0.78866673
-0.0025530399 0.082469895 0.78871435
0.0050322646 0.083072938 0.78870004
0.015751826 0.084841631 0.78827775
0.024515808 0.084590577 0.78704548
0.034492049 0.082859881 0.78452384
0.045137845 0.081570268 0.78479993
0.055212807 0.081186086 0.78272218
0.065135933 0.081327885 0.78341174
0.075219609 0.081168942 0.78255558
0.085009091 0.080666736 0.78235722
0.095143355 0.080674291 0.78242868
0.10153698 0.080578886 0.78150004
0.11536771 0.080647469 0.78216672
0.12439827 0.08056663 0.78192317
0.13885139 0.081146911 0.78000003
0.14128648 0.080578879 0.78150004
0.15587305 0.080406569 0.78216672
0.19731183 0.080010854 0.78300005
0.20020816 0.080010854 0.78300005
-0.19400376 0.092270613 0.78536373
-0.18444937 0.092544325 0.78538471
-0.17453329 0.092374772 0.78300005
-0.16574788 0.093129724 0.78524995
-0.15396389 0.093103707 0.78350008
-0.14191276 0.092298023 0.78900003
-0.13813274 0.091845468 0.78825009
-0.12469338 0.091922708 0.78757149
-0.11710539 0.092298023 0.78900003
-0.10575731 0.091947079 0.78600001
0.22544323 0.069736406 0.79800004
-0.1526113 0.078926027 0.79840004
-0.14539857 0.079156905 0.79812497
-0.13520895 0.079208478 0.79678577
-0.12485989 0.079187229 0.79657155
-0.11460658 0.079230107 0.79700005
-0.10540345 0.079083174 0.79800004
-0.096312955 0.079083078 0.79754543
-0.084844775 0.079226695 0.79753846
-0.074660815 0.078331776 0.79538101
-0.064795993 0.078221932 0.79505271
-0.05520077 0.078190789 0.79466677
-0.045054775 0.078687817 0.79650003
-0.034896597 0.078109413 0.79450011
-0.024655959 0.078377426 0.79585719
-0.015065713 0.078265317 0.79472232
-0.0055150613 0.078311957 0.79519051
0.0047854111 0.078381859 0.79590482
0.015078334 0.078344613 0.79552388
0.024906913 0.078632385 0.79594451
0.035296261 0.079066291 0.79707694
0.04470931 0.077817395 0.79496002
0.05480792 0.077066593 0.79449999
0.064774543 0.07813599 0.79415005
0.075667083 0.076900221 0.79421061
0.085293755 0.076774672 0.79374999
0.094830804 0.076114826 0.79473102
0.1051699 0.075521611 0.79515797
0.11523347 0.075597987 0.79491311
0.12551773 0.075083241 0.7948696
0.13505009 0.075227343 0.79442859
0.14517765 0.075341739 0.79490006
0.15509596 0.075416312 0.79495251
0.1652302 0.074935935 0.79480767
0.17460135 0.07479772 0.79456526
0.1846441 0.074573562 0.79455012
0.19522937 0.074514754 0.79426104
0.2050547 0.073875055 0.79410517
0.21527365 0.073660977 0.79469573
0.22459178 0.07316976 0.79381824
0.23208572 0.074902073 0.79800004
-0.39140153 0.084915578 0.79733342
-0.38443553 0.084428191 0.79553342
-0.37480623 0.083931766 0.79410005
-0.36581647 0.083726302 0.79355013
-0.35452673 0.083451554 0.79322737
-0.34487614 0.08327917 0.79350024
-0.33467638 0.083121613 0.79307705
-0.32647908 0.083369114 0.79311764
-0.31522429 0.082645781 0.79366672
-0.3050001 0.082043529 0.79571432
-0.29466084 0.082219496 0.79599994
-0.28442907 0.081596062 0.79566669
-0.27509934 0.081425488 0.79536855
-0.26538342 0.082217246 0.79460019
-0.25491503 0.081382483 0.79494745
-0.24424231 0.082261369 0.79447383
-0.23468293 0.08281412 0.79457885
-0.22489731 0.082693122 0.79415786
-0.21464258 0.082888015 0.79452002
-0.20509991 0.082504325 0.79419237
-0.19521773 0.081368051 0.79547065
-0.18446124 0.081782743 0.79535002
-0.17544986 0.082489334 0.79493105
-0.1651071 0.083376475 0.79468966
-0.15482982 0.084137365 0.79420698
-0.14474638 0.083287112 0.79310733
-0.1345447 0.084126391 0.79245007
-0.12487406 0.08491832 0.7917859
-0.11517392 0.084650777 0.79216677
-0.10531826 0.084398717 0.79363632
-0.094512902 0.084247537 0.7931053
-0.085042246 0.084526792 0.7931
-0.075933628 0.084578469 0.79211998
-0.064609557 0.085543357 0.79247224
-0.054728273 0.085502394 0.79275787
-0.044928506 0.084922373 0.79371434
-0.035050929 0.085543305 0.79361546
-0.025084477 0.085260637 0.79403347
-0.01451229 0.086320661 0.79390019
-0.0059355153 0.085851945 0.79382938
0.0046928278 0.085970007 0.79338467
0.014280519 0.085515961 0.79324156
0.026246248 0.085603602 0.79278266
0.034864597 0.080767021 0.79040003
-0.19298698 0.091502942 0.79114288
-0.18465978 0.091049828 0.79083329
-0.17519113 0.091069035 0.79100001
-0.16524188 0.091965504 0.79242861
-0.15512846 0.092048161 0.79314291
-0.14585832 0.091699705 0.79140007
-0.13483867 0.091873333 0.79290003
-0.12309871 0.090801768 0.7938
0.14775443 0.06920144 0.80900002
0.15149504 0.06920144 0.80900002
0.1649017 0.069177002 0.80871433
0.17521814 0.0691159 0.80800003
0.18141998 0.06920144 0.80900002
0.1960084 0.06920144 0.80900002
0.2051429 0.069128126 0.80814296
0.21622926 0.069009706 0.80677789
0.22243313 0.068227172 0.80491668
-0.38484052 0.079506338 0.80728579
-0.37403834 0.078802869 0.80688894
-0.36520436 0.078627937 0.80653852
-0.35511953 0.077756092 0.80547374
-0.34570113 0.078278676 0.80599993
-0.33568978 0.078980073 0.80650014
-0.32517764 0.079520404 0.80742866
-0.31390819 0.078830451 0.80650014
-0.3045077 0.078830294 0.80675012
-0.29508862 0.078713819 0.80683333
-0.28474444 0.078293726 0.80471426
-0.2744548 0.078028575 0.80476463
-0.26530236 0.078175314 0.80418742
-0.25491688 0.078520752 0.80485725
-0.2444554 0.078337744 0.80553341
-0.23502144 0.077990048 0.80629998
-0.22460189 0.078377485 0.8055715
-0.21497449 0.078611538 0.8057856
-0.20475493 0.078291304 0.80578566
-0.19542491 0.078541331 0.80507153
-0.18490754 0.07850004 0.80464303
-0.17493029 0.078363843 0.80325013
-0.16519971 0.07834617 0.80459994
-0.15553263 0.077392422 0.80475003
-0.14523849 0.076859318 0.80566669
-0.13463472 0.076539725 0.80476469
-0.12467531 0.07628946 0.80489475
-0.11503978 0.076317862 0.80519998
-0.10511718 0.076378547 0.80505002
-0.095060565 0.07616321 0.80435002
-0.085284464 0.076488674 0.80423528
-0.075188637 0.075585775 0.80469233
-0.065020375 0.075423039 0.8035714
-0.05446833 0.074795619 0.80484217
-0.044757001 0.075506769 0.8045001
-0.035545252 0.07529027 0.80442858
-0.024941705 0.074819744 0.80509531
-0.014732326 0.07469444 0.80454999
-0.0051012682 0.074746922 0.80347383
0.0047591832 0.074958019 0.8048948
0.015238776 0.074704334 0.80385715
0.025750136 0.074958488 0.80313033
0.034397226 0.074844994 0.80367863
0.044381816 0.074186347 0.80361116
0.055673171 0.073732905 0.80379999
0.065078929 0.074000016 0.80430764
0.074551538 0.073512368 0.80426085
0.08483886 0.07324563 0.80335009
0.095375665 0.072144076 0.80515003
0.10470473 0.072145917 0.80533338
0.11501203 0.071833096 0.80499995
0.12463656 0.071671456 0.80411118
0.13523972 0.071872637 0.8044706
0.14512229 0.071752623 0.80409521
0.15520172 0.071829058 0.80494744
0.1646968 0.071302369 0.80366671
0.17560457 0.071353182 0.80293334
0.18506283 0.07148701 0.80388898
0.19496158 0.071416236 0.80423534
0.20515718 0.071032979 0.80369246
0.21467501 0.070891708 0.80338472
0.22999531 0.072961479 0.80100006
0.23325689 0.074380361 0.80033332
-0.39356574 0.084281817 0.80300003
-0.38502231 0.081628248 0.80299997
-0.37578768 0.081239894 0.8023001
-0.36476618 0.080991834 0.80153847
-0.35542583 0.080806188 0.80044448
-0.34498996 0.080411732 0.80142868
-0.33485249 0.080469064 0.80200005
-0.32477549 0.081161126 0.80275011
-0.31443807 0.080368735 0.80100006
-0.30540606 0.080526404 0.80257142
-0.29480603 0.080469072 0.80200005
-0.28580654 0.080301844 0.80033332
-0.27483603 0.080268398 0.80000001
-0.25190222 0.080268398 0.80000001
-0.24604653 0.080368735 0.80100006
-0.2358363 0.080753282 0.80155557
-0.22477357 0.0803544 0.80085719
-0.21576016 0.080308534 0.80040008
-0.2046828 0.080318563 0.80050004
-0.19123854 0.080268398 0.80000001
-0.18827933 0.080268398 0.80000001
-0.16327834 0.080343649 0.80075008
-0.15878694 0.08031857 0.80050004
-0.054842364 0.069971293 0.81800002
-0.044978444 0.069922417 0.81742859
-0.035151873 0.069928527 0.81749994
-0.025331309 0.069946855 0.81771427
-0.014741391 0.069934636 0.81757146
-0.0049159001 0.069928519 0.81750005
0.0039081522 0.06994278 0.81766671
0.013994258 0.069971293 0.81800002
0.024546726 0.069873534 0.81685704
0.034469444 0.069190614 0.81625009
0.045224819 0.069583818 0.81600004
0.054637272 0.068959154 0.81500006
0.065273032 0.06904377 0.81599998
0.075012378 0.068980388 0.81524998
0.085076578 0.068796523 0.81486666
0.094941631 0.068740115 0.8142001
0.10470335 0.068354979 0.8145625
0.11473064 0.068838015 0.81357163
0.12507001 0.067987815 0.81425011
0.13451983 0.068481371 0.81493753
0.14468698 0.067840874 0.81466675
0.15572776 0.067868643 0.81384218
0.16481443 0.066752486 0.81568426
0.17499052 0.066642396 0.81518191
0.18552673 0.06731642 0.81416661
0.19471368 0.067068666 0.81454545
0.2048697 0.066696033 0.81500006
0.21511003 0.06612666 0.81365228
0.22156088 0.064643957 0.81233329
-0.39201188 0.078350462 0.81600004
-0.38461977 0.077121727 0.8136667
-0.3750869 0.076083079 0.81465018
-0.36515301 0.075391047 0.81411767
-0.35495108 0.074357055 0.8146317
-0.34479699 0.075301819 0.81414288
-0.33463413 0.076358631 0.81480777
-0.32508418 0.076685227 0.8148638
-0.31506205 0.076238945 0.81470001
-0.30523252 0.076021753 0.81480008
-0.29557833 0.07580971 0.8148948
-0.28519982 0.075449526 0.81357908
-0.27529931 0.075292967 0.81400019
-0.26453313 0.075541697 0.81382364
-0.25498953 0.075109474 0.81386971
-0.24553259 0.074729651 0.81452006
-0.23478296 0.074607618 0.81361115
-0.22539558 0.074833654 0.81404167
-0.21544565 0.075659998 0.81414276
-0.20501493 0.075493358 0.81405276
-0.19461231 0.075814895 0.81494743
-0.18437326 0.07533288 0.81371433
-0.17505027 0.075418569 0.81449991
-0.16531111 0.07480029 0.81504172
-0.15503415 0.074238382 0.81425017
-0.14432982 0.073216274 0.81465226
-0.1353479 0.073384553 0.81488901
-0.12480123 0.073158294 0.8148824
-0.11522695 0.072813988 0.81510526
-0.1051282 0.072299421 0.81445843
-0.095146686 0.072724506 0.81405562
-0.085127614 0.07383734 0.81375009
-0.075366028 0.072524309 0.81438112
-0.06439434 0.072438262 0.81447387
-0.055293094 0.071871974 0.81493753
-0.045250256 0.072321571 0.81327778
-0.034745511 0.072474502 0.81317663
-0.025201811 0.071841046 0.81349999
-0.014669923 0.071847416 0.81357145
-0.0048919334 0.07185562 0.81366676
0.0050703334 0.072005987 0.81538904
0.015253708 0.07173875 0.81520015
0.024468569 0.071781926 0.81424999
0.035746634 0.071528442 0.81227285
0.045466628 0.071767621 0.81266665
0.053936422 0.071292758 0.81199998
0.065046728 0.071059719 0.8131429
0.075488888 0.070984825 0.81228578
0.08514145 0.070887029 0.8111667
0.091177456 0.070916161 0.81150007
0.1037432 0.070785075 0.81000006
0.13595229 0.070785075 0.81000006
-0.3947821 0.081270553 0.81300002
-0.33491015 0.069278561 0.82779998
-0.29323167 0.069378994 0.82900006
-0.28863192 0.069378994 0.82900006
-0.25389069 0.069312036 0.82820004
-0.24480726 0.069343127 0.82857144
-0.23473321 0.069309242 0.82816672
-0.21486239 0.069323204 0.82833338
-0.20967022 0.069378994 0.82900006
-0.17337891 0.069274381 0.82775003
-0.16438365 0.069082715 0.82775009
-0.15639228 0.068720341 0.82800007
-0.14487766 0.069187701 0.8267144
-0.1350082 0.069225557 0.82716674
-0.12514803 0.069271386 0.82771438
-0.11493801 0.06911397 0.8258335
-0.10488329 0.069032274 0.82485718
-0.094009228 0.068220869 0.82681829
-0.085207745 0.067628682 0.82638097
-0.074709579 0.067529172 0.82610005
-0.065328933 0.068382226 0.82625008
-0.054470435 0.067713745 0.82638901
-0.044940349 0.067637391 0.82552642
-0.034731053 0.067549773 0.82542866
-0.024829568 0.067614831 0.8262223
-0.014896902 0.067596458 0.82600009
-0.0049584382 0.067483276 0.82461107
0.0049641524 0.067557737 0.82552373
0.015203811 0.067078665 0.82500005
0.024462542 0.067248948 0.82499993
0.034890324 0.066519476 0.82527786
0.044674799 0.067302592 0.82436848
0.055274926 0.066107661 0.8244738
0.064937808 0.065900415 0.82489473
0.075072967 0.065924719 0.8241905
0.085239276 0.065909721 0.82399994
0.095183291 0.065474741 0.82257891
0.10446636 0.064916134 0.82400006
0.11491308 0.065464616 0.82426107
0.12489811 0.064411916 0.82438099
0.13587251 0.064517662 0.82349998
0.14454497 0.064001486 0.82445455
0.15532422 0.064486675 0.82417637
0.16491868 0.063105926 0.82615805
0.17520033 0.063294023 0.82633346
0.18460494 0.062886626 0.82433343
0.19461069 0.062919199 0.82476199
0.20496117 0.062973797 0.82547373
0.2147802 0.062346719 0.8245455
0.22135706 0.061591197 0.82400012
-0.39422801 0.076869167 0.82166672
-0.38454416 0.073164448 0.82381821
-0.37491328 0.072436035 0.82505554
-0.36463913 0.07181967 0.82406265
