# .PCD v0.7 - Point Cloud Data file format
VERSION 0.7
FIELDS x y z
SIZE 4 4 4
TYPE F F F
COUNT 1 1 1
WIDTH 1128
HEIGHT 1
VIEWPOINT 0 0 0 1 0 0 0
POINTS 1128
DATA ascii
1.1409889 -1.0149583 2.0650001
1.1412418 -1.0096701 2.062
1.1638316 -0.95430773 2.066
1.1432202 -1.0128936 2.0725002
1.1456696 -1.0097588 2.0700002
1.1522746 -1.0006847 2.075
1.1531075 -0.99564695 2.0765002
1.1654704 -0.96369886 2.0780001
1.1628529 -0.95386475 2.0733335
1.1672002 -0.94757205 2.0742502
1.1717455 -0.94142556 2.0755
1.1829764 -0.93160588 2.075
1.1844016 -0.92504454 2.0775001
1.1846356 -0.91399032 2.0756667
1.1926601 -0.91203368 2.0785
1.1868676 -0.90832019 2.0773335
1.192947 -0.90648592 2.079
1.192947 -0.89110547 2.079
1.1628654 -0.95476443 2.0836668
1.1550785 -0.94535756 2.0870001
1.1741642 -0.94350308 2.0843334
1.1581054 -0.93439186 2.0855002
1.1639125 -0.93402779 2.089
1.1792657 -0.93859929 2.082
1.1845657 -0.93665302 2.0862501
1.1633555 -0.92971891 2.0880001
1.1857247 -0.92422885 2.0843334
1.1841022 -0.91596752 2.0860002
1.1853249 -0.90801197 2.0825
1.1931875 -0.90361577 2.0848002
1.1944402 -0.89510602 2.0883334
1.1922476 -0.88382512 2.0845001
1.1550676 -0.87762046 2.0835001
1.1853913 -0.87288558 2.086
1.1914364 -0.87582064 2.0853333
1.1429508 -0.86709934 2.0860002
1.1660991 -0.86131042 2.086
1.1752528 -0.86626434 2.0839999
1.1872431 -0.866229 2.0870001
1.191771 -0.86612886 2.0836668
1.1892475 -0.85938323 2.0860002
1.1947459 -0.85724664 2.0855
1.1975374 -0.84049565 2.0870001
1.1722482 -0.89106381 2.0970001
1.1534164 -0.882254 2.0945001
1.1744441 -0.88978904 2.0940001
1.1877589 -0.88330704 2.0970001
1.1917566 -0.88406301 2.0926666
1.1884202 -0.87318236 2.0913334
1.1385 -0.86185509 2.092
1.1412489 -0.86053389 2.0935001
1.17609 -0.86328155 2.0923333
1.1869911 -0.86417443 2.0944998
1.1351732 -0.85065407 2.0930002
1.1454375 -0.85738152 2.0962002
1.1524973 -0.85235089 2.0940001
1.175005 -0.8572799 2.0950003
1.188799 -0.85798597 2.092
1.1951523 -0.85379028 2.095
1.2009803 -0.85259044 2.0929999
1.1357155 -0.84331042 2.0940001
1.1568463 -0.84559059 2.0958002
1.1647629 -0.84524894 2.0939999
1.1733471 -0.84682119 2.0955
1.1998327 -0.84597391 2.0910001
1.200541 -0.8492105 2.0990002
1.1274312 -0.83904105 2.0930002
1.1323832 -0.8398428 2.095
1.1460025 -0.83650285 2.0943999
1.1645784 -0.83543605 2.0936668
1.1733663 -0.83756423 2.0990002
1.1470377 -0.82125252 2.0970001
1.1541013 -0.82532579 2.0975001
1.1639361 -0.828614 2.0960002
1.1848465 -0.86297244 2.1010001
1.1461711 -0.8527444 2.1013336
1.1511695 -0.85196257 2.1010001
1.1845999 -0.85525131 2.1024003
1.1931489 -0.85328102 2.1035714
1.1271787 -0.84075648 2.1070001
1.1438247 -0.84573114 2.1000001
1.1525636 -0.84767312 2.1000001
1.1767077 -0.84439147 2.1015
1.1846489 -0.84492421 2.1052501
1.128123 -0.83467412 2.1015
1.1336983 -0.83510011 2.1025715
1.1446377 -0.83697796 2.1056669
1.1514127 -0.83217198 2.105
1.1764395 -0.83489144 2.1045001
1.1841393 -0.83561343 2.1055002
1.1900936 -0.83335799 2.108
1.1289283 -0.82749182 2.1030002
1.1345626 -0.82457566 2.1038334
1.1434911 -0.82577974 2.1026001
1.1511695 -0.82670486 2.1010001
1.1646256 -0.82603616 2.10425
1.1767275 -0.829656 2.1085
1.1848073 -0.8298527 2.1090002
1.1981293 -0.82827878 2.105
1.1395121 -0.80727583 2.1010001
1.1483759 -0.80804431 2.1030002
1.1789564 -0.79474729 2.1090002
1.1772794 -0.78972173 2.1060002
1.1742201 -0.75715131 2.1075001
1.1764481 -0.73978794 2.108
1.2797649 -0.72029418 2.108
1.2837834 -0.7192691 2.105
1.2902359 -0.71961081 2.1060002
1.3187524 -0.71444607 2.108
1.3247578 -0.71453106 2.1082499
1.3349805 -0.71283472 2.1090002
1.3447319 -0.71283472 2.1090002
1.3538526 -0.71312094 2.1060002
1.319378 -0.70893413 2.1090002
1.3249152 -0.70876604 2.1085
1.336339 -0.70467055 2.1050003
1.3460654 -0.70532894 2.1060002
1.3561236 -0.70460063 2.10625
1.3564471 -0.69512624 2.1060002
1.3310798 -0.68553048 2.1090002
1.1482959 -0.83414865 2.1100001
1.1413919 -0.81527805 2.1116669
1.1168668 -0.80167741 2.1170001
1.1251605 -0.80301666 2.1164002
1.1351498 -0.80550992 2.1155002
1.1424839 -0.80403942 2.1155002
1.1158117 -0.79700834 2.115
1.1243424 -0.79555184 2.1163337
1.1325284 -0.79776198 2.1170001
1.1761651 -0.79377431 2.1133335
1.128613 -0.78405809 2.1170001
1.1325283 -0.78405905 2.1170001
1.1728212 -0.78806549 2.112
1.1296792 -0.77892017 2.1190002
1.1335983 -0.77892017 2.1190002
1.175038 -0.75172466 2.1160002
1.1694685 -0.7415427 2.1130002
1.1742101 -0.74633813 2.1127501
1.1741163 -0.73810011 2.1143334
1.1841258 -0.736287 2.1147501
1.277539 -0.7223444 2.1140001
1.3040789 -0.72405285 2.1190002
1.3161355 -0.72314167 2.1163332
1.3238099 -0.7236495 2.1140001
1.3344859 -0.72354031 2.1175001
1.3491485 -0.72013378 2.1190002
1.3560562 -0.72251523 2.1145
1.2865108 -0.71864462 2.1175001
1.2948014 -0.7150951 2.1142499
1.3061903 -0.71512395 2.1174285
1.3148154 -0.71534914 2.1150002
1.3349457 -0.71611422 2.1110001
1.3439598 -0.71945405 2.1170001
1.3526926 -0.71724701 2.1143334
1.297894 -0.70429206 2.1185002
1.3037717 -0.70527041 2.1185002
1.3182843 -0.70849091 2.1135001
1.3240416 -0.70380354 2.112
1.3331599 -0.70659459 2.1107502
1.2491045 -0.69351184 2.1155
1.2555664 -0.6997118 2.1165001
1.263696 -0.694004 2.1170001
1.2953442 -0.69367206 2.1134286
1.3058394 -0.69351315 2.1155
1.3198436 -0.69954652 2.1160002
1.3228942 -0.69805878 2.1115
1.3381454 -0.69106561 2.1140001
1.355768 -0.69398922 2.1110001
1.2556659 -0.68410617 2.1166668
1.296975 -0.68813092 2.1170001
1.3060385 -0.68878102 2.1190002
1.3352447 -0.68861938 2.1125002
1.2623324 -0.67474651 2.118
1.3002759 -0.67997873 2.1160002
1.1385909 -0.78357762 2.1210001
1.1353797 -0.77518272 2.1238003
1.1766887 -0.75665331 2.1225002
1.1693854 -0.74522758 2.1235001
1.1716282 -0.74147469 2.1240001
1.1755534 -0.73754638 2.1240001
1.1822989 -0.73685187 2.1220002
1.2774887 -0.72171968 2.1236668
1.2835823 -0.71593767 2.1240003
1.2925022 -0.71288973 2.1246669
1.2547139 -0.70449066 2.125
1.2648091 -0.70481646 2.1248002
1.2738981 -0.7072832 2.1275001
1.2962328 -0.70552087 2.1222
1.3066548 -0.70478982 2.1200001
1.3154783 -0.70557821 2.122375
1.3202834 -0.70578718 2.1230001
1.2462667 -0.69040626 2.1240001
1.2522552 -0.69547963 2.1275001
1.2698368 -0.69040626 2.1240001
1.3173903 -0.69455194 2.1246667
1.3224195 -0.69705993 2.1243336
1.24568 -0.68419051 2.1230001
1.2518432 -0.68530476 2.1228001
1.2651138 -0.68604571 2.1226666
1.2737401 -0.68656653 2.1283333
1.3039629 -0.68779194 2.1220002
1.3105758 -0.68910605 2.1200001
1.2542397 -0.67475569 2.1242001
1.2647165 -0.67013294 2.1220002
1.2636141 -0.66868031 2.12675
1.2776752 -0.66557282 2.1283336
1.2825233 -0.66534436 2.1255002
1.2753882 -0.65469581 2.1254001
1.2688885 -0.64084285 2.1290002
1.2735512 -0.64568007 2.1227145
1.2752705 -0.63655335 2.1252003
1.2788966 -0.62814367 2.1260002
1.2503741 -0.68085772 2.131
1.2558297 -0.67530125 2.1352501
1.2560416 -0.66547853 2.1358573
1.2642896 -0.66341037 2.1332002
1.2739606 -0.66408879 2.1320002
1.2555602 -0.65552878 2.1358001
1.2650933 -0.65476698 2.1358888
1.2725863 -0.65651178 2.1330001
1.2659436 -0.64432037 2.1340001
1.2700804 -0.6493274 2.131
1.2647291 -0.63581908 2.1341667
1.2732522 -0.63553685 2.1350002
1.2809615 -0.63307261 2.1360002
1.2822051 -0.62385398 2.1315002
1.2815901 -0.61565036 2.1326668
1.2872119 -0.60174942 2.1300001
1.2994964 -0.59893262 2.1340001
1.3048067 -0.59667766 2.1329999
1.3107224 -0.59076202 2.1330001
1.3184888 -0.58764237 2.1360002
1.2268293 -0.65648758 2.1415
1.2616322 -0.64567107 2.1417501
1.2766365 -0.63287103 2.1420002
1.2738632 -0.62949657 2.1440001
1.2984245 -0.60117793 2.1420002
1.3063469 -0.59721631 2.1420002
1.3121419 -0.59408557 2.145
1.3150239 -0.58874279 2.1400001
-0.48149386 -1.0716479 2.1560001
-0.47507149 -1.0726457 2.154
-0.46572185 -1.074056 2.1568334
-0.45735648 -1.0731447 2.1550002
-0.49015 -1.0651529 2.1590002
-0.48365697 -1.0660379 2.1567502
-0.47540185 -1.0654194 2.1555002
-0.46597591 -1.0666548 2.1580002
-0.45735648 -1.0671651 2.1550002
-0.49357089 -1.0539498 2.1565001
-0.48528105 -1.055263 2.1551113
-0.47532895 -1.0552909 2.1551669
-0.48615694 -1.0372013 2.1590002
1.4205564 -0.49345645 2.1560001
1.4285325 -0.47220105 2.1500001
1.4318546 -0.47728488 2.1550002
1.4298613 -0.46866018 2.1520002
-0.65428412 -1.0811234 2.1670003
-0.48795834 -1.0811234 2.1670001
-0.66338128 -1.0716219 2.1640003
-0.65892565 -1.0768771 2.1624999
-0.49151218 -1.074122 2.1650002
-0.48472241 -1.0763791 2.1615
-0.66630816 -1.0670943 2.1670001
-0.5004434 -1.0660748 2.1690001
-0.4971751 -1.0613694 2.1635003
-0.51247811 -1.0500286 2.1690001
-0.50352466 -1.0520962 2.1650002
-0.49859759 -1.0541493 2.161
-0.51188743 -1.0428092 2.1665001
-0.50533766 -1.0449848 2.1613333
-0.5134207 -1.0338346 2.1645002
-0.49389154 -1.0327574 2.1614001
-0.48705763 -1.0331213 2.1630001
-0.52050126 -1.0299708 2.1690001
-0.51647443 -1.0246129 2.1633334
-0.49478555 -1.0240924 2.164
-0.487508 -1.0280713 2.1650002
-0.49589187 -1.0145127 2.1641431
-0.53253597 -1.0018897 2.1690001
1.4591463 -0.44243795 2.1600001
1.4652261 -0.44026986 2.1690001
1.4672055 -0.43765604 2.1660001
1.4551874 -0.42363682 2.1660001
1.4605409 -0.42402798 2.1680002
-0.65081608 -1.0833499 2.1755002
-0.64537299 -1.0863619 2.1775002
-0.66182035 -1.0715665 2.1720002
-0.65737092 -1.076394 2.1750002
-0.67240334 -1.0623769 2.1737502
-0.66497529 -1.0653666 2.17575
-0.5051527 -1.0655417 2.1719999
-0.68300474 -1.0511612 2.1755002
-0.67619139 -1.0563636 2.1751668
-0.50916982 -1.055498 2.1720002
-0.69290358 -1.0428739 2.1750002
-0.68702841 -1.0471385 2.1754999
-0.70564848 -1.0348419 2.1744287
-0.69909918 -1.0390904 2.1755002
-0.52467608 -1.0362576 2.178
-0.51720405 -1.0394295 2.1720002
-0.71971297 -1.0297432 2.177
-0.53047377 -1.0216905 2.177
-0.52608466 -1.0270233 2.1754999
-0.5349912 -1.0145689 2.1790001
-0.52925539 -1.0133193 2.1719999
-0.53626966 -1.0051177 2.1760001
-0.54255289 -0.9935059 2.177
-0.53704226 -0.99478298 2.171
-0.55009979 -0.9805252 2.1750002
-0.54356551 -0.98565197 2.1730001
-0.55035269 -0.97494018 2.1760001
-0.55514151 -0.96217811 2.1790001
-0.48640707 -0.96173656 2.1780002
1.4558682 -0.42366254 2.1730001
-0.99650168 -1.0754135 2.1880002
-1.010666 -1.0632733 2.1880002
-0.99650258 -1.0632733 2.1880002
-0.66244531 -1.0635841 2.1820002
-0.68038565 -1.0513219 2.1800001
-0.67380029 -1.0528256 2.1847999
-0.66835207 -1.0570458 2.1835003
-0.69188929 -1.0413713 2.1845002
-0.68474168 -1.0455104 2.1847143
-0.67837036 -1.0483892 2.1865001
-0.70231825 -1.033137 2.1813333
-0.69562656 -1.0372084 2.1856668
-0.72220868 -1.0238006 2.1815002
-0.71453339 -1.0245852 2.1842501
-0.7055763 -1.0281506 2.1855998
-0.53585052 -1.0222539 2.1825001
-0.73436856 -1.0126557 2.1806669
-0.72647595 -1.0154952 2.1838889
-0.71930289 -1.0167352 2.1880002
-0.54075283 -1.0137852 2.1860001
-0.73505676 -1.0063916 2.1850002
-0.54479957 -1.0056956 2.1860001
-0.54674047 -0.99624473 2.1829998
-0.5531348 -0.98997986 2.187
-0.56122452 -0.97177702 2.1870003
-0.55539626 -0.97068352 2.1800001
-0.56045467 -0.96438599 2.184
-0.55565107 -0.96709502 2.181
-0.49201152 -0.96482754 2.1850002
-0.48282182 -0.96261972 2.1800001
-0.56501091 -0.95314008 2.1860001
-0.48528257 -0.95744848 2.1819999
-0.56779617 -0.94519323 2.1863334
-0.56905389 -0.93494743 2.1860001
-0.57577574 -0.92387331 2.1885002
-1.1357708 -1.074196 2.1951668
-1.1280836 -1.0793455 2.1960001
-1.0513935 -1.0717102 2.197
-1.0433953 -1.073815 2.1930001
-1.0337608 -1.0735621 2.1958001
-1.0247489 -1.0734985 2.1965003
-1.0159302 -1.0747943 2.1950002
-1.0047497 -1.0747066 2.19275
-0.99538827 -1.0723461 2.1900001
-1.1174235 -1.0604848 2.1990001
-1.0884589 -1.0600024 2.1980002
-1.0732541 -1.0630995 2.1960001
-1.0626869 -1.063705 2.1972501
-1.0545815 -1.0633899 2.1980002
-1.0448226 -1.0651261 2.1960001
-1.0359199 -1.0653706 2.1965001
-1.0235829 -1.0641601 2.1940002
-1.0152065 -1.0658675 2.1912498
-1.0059733 -1.0687834 2.1910002
-0.99764168 -1.0685395 2.1905003
-1.0853294 -1.0544509 2.1966
-1.074995 -1.054701 2.194375
-1.0647829 -1.0574663 2.1978002
-1.0401495 -1.0564177 2.1990001
-1.0328901 -1.0564613 2.1974003
-1.0238954 -1.0547308 2.1938002
-1.084887 -1.0482836 2.1990001
-1.0320153 -1.0482836 2.1990001
-1.0241101 -1.0460382 2.1960001
-1.0147724 -1.0451819 2.1925001
-1.0051986 -1.0447354 2.192625
-1.0152853 -1.0396764 2.1980002
-1.0038018 -1.0354798 2.1960001
-0.70002782 -1.0323131 2.1910002
-0.99551874 -1.0279896 2.1947503
-0.98458105 -1.0261738 2.1941252
-0.97466666 -1.0253741 2.1935
-0.71315974 -1.0215532 2.194
-0.70597732 -1.0254931 2.1937501
-0.98276353 -1.0193504 2.1980002
-0.97433811 -1.0190412 2.1973333
-0.96262366 -1.0167593 2.1953335
-0.94534516 -1.0163701 2.1945002
-0.93623018 -1.0153477 2.1937501
-0.92701387 -1.0122365 2.1943333
-0.72397995 -1.0120831 2.194
-0.71575356 -1.0186909 2.1936667
-0.92339593 -1.0087264 2.197
-0.91422588 -1.0055482 2.1945002
-0.87670106 -1.0003514 2.1920002
-0.74224043 -1.0021769 2.1960001
-0.73471212 -1.0046493 2.1947501
-0.72939098 -1.0093797 2.194
-0.90104932 -0.99856985 2.197
-0.89278555 -0.99825406 2.1933336
-0.87455875 -0.99833304 2.1942501
-0.86521196 -0.99360073 2.1968
-0.85701799 -0.99292219 2.1935
-0.75416684 -0.99371064 2.1952503
-0.74697053 -0.99832344 2.1920002
-0.85296106 -0.98886526 2.1935
-0.84319848 -0.98728311 2.1945
-0.83514339 -0.98668236 2.1946666
-0.82493794 -0.98525739 2.1945
-0.81497073 -0.98344922 2.1950002
-0.80427754 -0.98075151 2.1935
-0.79688787 -0.98164576 2.1954999
-0.78595954 -0.98473358 2.1933336
-0.77520102 -0.98652941 2.1973333
-0.76283693 -0.98773825 2.191
-0.8055613 -0.97825307 2.197
-0.7976138 -0.97847569 2.1975002
-0.557944 -0.97918659 2.1900001
-0.56707871 -0.96271586 2.1940002
-0.49313742 -0.96298498 2.1900001
-0.57113647 -0.95257044 2.194
-0.49381292 -0.95821834 2.1930003
-0.76544869 -0.94639194 2.1985002
-0.5754565 -0.93473709 2.1950002
-0.60904157 -0.92627192 2.1990001
-0.58463925 -0.92220485 2.1990001
-0.57925206 -0.92822355 2.194
-0.60497451 -0.91407073 2.1990001
-0.58446199 -0.91379303 2.1983335
-0.60297805 -0.90497595 2.196667
-0.58450627 -0.90369803 2.1985002
-0.58437335 -0.89739424 2.1980002
-0.59616184 -0.88662708 2.1965003
-0.57243806 -0.86933309 2.1990001
-0.50736517 -0.85306489 2.1990001
-1.1510059 -1.0858737 2.2010002
-1.1484984 -1.0873538 2.204
-1.1268419 -1.081972 2.2055001
-1.0216693 -1.082786 2.2030001
-1.0153275 -1.0825403 2.2025001
-1.1311659 -1.0741473 2.2019999
-1.1262474 -1.0745754 2.2056665
-1.0744159 -1.0744172 2.2053335
-1.0639677 -1.0741493 2.2020001
-1.0555824 -1.0759417 2.2015002
-1.1301384 -1.0650359 2.2
-1.1243774 -1.0672951 2.2046669
-1.1157087 -1.0653831 2.2063334
-1.106379 -1.0630951 2.2078001
-1.093714 -1.065178 2.2045002
-1.0843318 -1.066004 2.2020001
-1.0673133 -1.0693477 2.2005
-1.0568981 -1.0691048 2.2
-1.1113071 -1.056303 2.2030001
-1.1039085 -1.0549841 2.2045002
-1.0963682 -1.0556229 2.2030001
-1.0748935 -1.0528686 2.2052002
-1.0654173 -1.0531819 2.2049999
-1.0561341 -1.0545037 2.2018001
-1.0456406 -1.0537852 2.2020001
-1.0370247 -1.0533078 2.2010002
-1.1064416 -1.0453695 2.2014287
-1.0952678 -1.0443482 2.2025001
-1.0857639 -1.0467631 2.2031429
-1.077564 -1.0489651 2.2090001
-1.0636252 -1.0445642 2.2083335
-1.0539054 -1.0457525 2.2036667
-1.0458686 -1.045869 2.2042003
-1.0358775 -1.0453885 2.2043335
-1.0243468 -1.0406225 2.2
-1.096339 -1.0344232 2.2024
-1.0605011 -1.0380454 2.2075
-1.0531828 -1.0368693 2.2049999
-1.0446932 -1.0347823 2.2061429
-1.0350834 -1.0361028 2.2066252
-1.0253333 -1.0355327 2.2065001
-1.0158658 -1.0342022 2.2036667
-1.0080712 -1.0324847 2.2
-1.0980545 -1.0246965 2.2036669
-1.040794 -1.0285374 2.2090001
-1.0344319 -1.0283046 2.2085001
-1.0262628 -1.0283046 2.2085001
-1.0155146 -1.0277613 2.2073333
-1.0059409 -1.0283624 2.2042501
-0.99577111 -1.0235012 2.2052002
-0.98772669 -1.020278 2.2
-1.1102483 -1.0162807 2.2090001
-0.99042046 -1.0189805 2.2060001
-0.98407781 -1.0167072 2.2055001
-0.97488695 -1.0139196 2.2051432
-0.96675807 -1.0142633 2.2016668
-0.95546365 -1.0124469 2.2006667
-0.94489336 -1.013451 2.2064002
-0.93602109 -1.0121799 2.2060001
-0.96280861 -1.009675 2.2035
-0.95358914 -1.0086632 2.20575
-0.9487595 -1.009904 2.204
-0.93006289 -1.0076532 2.2080002
-0.92457753 -1.0061283 2.2046669
-0.91542125 -1.0029914 2.20225
-0.9062264 -0.99857879 2.2030001
-0.89444184 -0.99631429 2.2032502
-0.8842721 -0.99510163 2.2058334
-0.87450689 -0.99336976 2.2035
-0.86802042 -0.99042046 2.2060001
-0.86354882 -0.98997152 2.2050002
-0.85665476 -0.98907363 2.2030001
-0.84722877 -0.98792875 2.2050002
-0.8324309 -0.98768187 2.2090001
-0.82518226 -0.98634052 2.2060001
-0.8165884 -0.98228097 2.2030001
-0.79202038 -0.98213261 2.2026665
-0.78668499 -0.98565447 2.2067499
-0.76940221 -0.98952258 2.204
-0.81053281 -0.97773707 2.2050002
-0.80478036 -0.97818047 2.2060001
-0.79698062 -0.97862387 2.2070003
-0.72114033 -0.94146049 2.2060001
-0.7167353 -0.94103366 2.2050002
-0.62180775 -0.94339734 2.2010002
-0.57716054 -0.94564891 2.2014999
-0.61461127 -0.93669975 2.2044001
-0.58290023 -0.93596154 2.2026665
-0.6066215 -0.92336053 2.2050002
-0.59138346 -0.92231303 2.2090001
-0.58490509 -0.92669314 2.2
-0.8249929 -0.9167726 2.2055001
-0.81498045 -0.91698045 2.2060001
-0.80478036 -0.91698045 2.2060001
-0.79625928 -0.91656476 2.2050002
-0.78594446 -0.91642618 2.2046669
-0.77400446 -0.91575539 2.2055001
-0.76549858 -0.91330111 2.2045002
-0.75513518 -0.91207278 2.204
-0.74782842 -0.9131074 2.2065001
-0.65118939 -0.91818541 2.204
-0.60354084 -0.9160099 2.2036667
-0.59392864 -0.91386539 2.2083335
-0.74468899 -0.90667033 2.2032499
-0.73656583 -0.90364677 2.2033336
-0.72742569 -0.90290552 2.2065001
-0.64593869 -0.90227968 2.2
-0.60145396 -0.90676057 2.2010002
-0.59457779 -0.90433556 2.2078571
-0.72429651 -0.89544213 2.2032001
-0.7167353 -0.89209586 2.2050002
-0.65333909 -0.89413077 2.2066667
-0.64613444 -0.89441347 2.2006667
-0.59479046 -0.89678365 2.2065001
-0.5853039 -0.89271426 2.2014999
-0.70530236 -0.88290173 2.2075
-0.69556499 -0.88145751 2.2090001
-0.67309445 -0.88145751 2.2090001
-0.66636318 -0.88065946 2.2070003
-0.65445232 -0.88516998 2.204
-0.64593869 -0.88600409 2.2
-0.59275413 -0.88249993 2.2065001
-0.58426321 -0.88403928 2.2052503
-0.67507648 -0.87407511 2.2048001
-0.66538119 -0.87325048 2.2037501
-0.59207976 -0.87436426 2.2040002
-0.58294833 -0.87697482 2.2080002
-0.57781595 -0.87538177 2.2040002
-0.644445 -0.8648147 2.2065001
-0.63458389 -0.86719579 2.2065001
-0.6264472 -0.86480093 2.2030001
-0.57413012 -0.86578274 2.2055001
-0.50882643 -0.86367685 2.2053335
-0.64630175 -0.85527402 2.2068002
-0.62322032 -0.85578042 2.2060001
-0.56686276 -0.85640788 2.2049999
-0.56112862 -0.84831095 2.2025001
-0.55599385 -0.84128636 2.2036669
-0.53452837 -0.84201086 2.2020001
-0.52638412 -0.84201086 2.2020001
-0.55423689 -0.83798844 2.2075
-0.54485011 -0.83536649 2.2046251
-0.53513598 -0.83481175 2.2045002
-0.5248251 -0.83462322 2.204
-0.51447725 -0.83436936 2.2033336
-0.50905716 -0.83550358 2.2063334
-0.53400433 -0.82500041 2.20825
-0.51492447 -0.82490009 2.20525
-0.52349842 -0.81943166 2.2070003
-0.51533377 -0.81943166 2.207
-1.1230131 -1.0780518 2.21
-1.1159297 -1.0743355 2.212167
-1.0984888 -1.0698769 2.21
-1.0908073 -1.0417364 2.2110002
-1.0845865 -1.0456671 2.2149999
-1.0739139 -1.0462977 2.2120001
-1.0685145 -1.0453525 2.21
-1.0946871 -1.037376 2.2133334
-1.0743085 -1.0360484 2.2163334
-1.0664729 -1.0344114 2.2128332
-1.0565264 -1.0319788 2.2120001
-1.100974 -1.0231377 2.2150002
-1.0989858 -1.0253793 2.2110002
-1.0456653 -1.0272298 2.2150002
-1.0349603 -1.0247223 2.2140002
-1.0240258 -1.0233432 2.2125001
-1.0144784 -1.0234797 2.2122002
-1.0050471 -1.0234501 2.2112501
-1.1229762 -1.016319 2.2180002
-1.1158464 -1.0156136 2.2119999
-1.1052887 -1.01685 2.2138
-1.0141538 -1.0182546 2.2177501
-1.0061431 -1.0184398 2.2166667
-0.99662268 -1.0171064 2.21525
-0.98615611 -1.0127797 2.2147501
-0.977633 -1.0103914 2.214
-0.94487464 -1.0103914 2.214
-0.97309852 -1.009935 2.2130001
-0.9656356 -1.0093275 2.2146666
-0.95575589 -1.0056092 2.2155001
-0.93538511 -1.0058376 2.2148001
-0.92685097 -1.0032625 2.2133334
-0.91680729 -1.0006175 2.2105002
-0.91403174 -0.99734133 2.2153332
-0.90458167 -0.99546796 2.2136002
-0.89506096 -0.99462646 2.2123334
-0.88634485 -0.99266529 2.2110002
-0.82500607 -0.98448682 2.2110002
-0.78189164 -0.95155758 2.2105002
-0.77733886 -0.95349473 2.2150002
-0.77289313 -0.94896942 2.214
-0.76845109 -0.94854081 2.2130001
-0.66552538 -0.93132657 2.2110002
-0.81482261 -0.92551404 2.2166669
-0.80396801 -0.92481816 2.2150002
-0.79523444 -0.92419189 2.2135
-0.78635782 -0.9257924 2.2173336
-0.77440649 -0.92620993 2.2183335
-0.7664305 -0.92648828 2.2190001
-0.74762428 -0.92196858 2.2179999
-0.65764415 -0.92356563 2.2120001
-0.76332194 -0.91864318 2.21
-0.75571543 -0.9193359 2.2116668
-0.7415098 -0.9153834 2.2119999
-0.73548341 -0.91142964 2.2123334
-0.72916532 -0.91376418 2.2180002
-0.65340531 -0.91313004 2.2115002
-0.59737349 -0.91537321 2.21
-0.7232601 -0.90679282 2.2150002
-0.71621233 -0.90064472 2.2160001
-0.66323107 -0.90105116 2.217
-0.65531498 -0.90501755 2.2133334
-0.71421576 -0.89533114 2.2130001
-0.70801538 -0.89244771 2.2160001
-0.66460901 -0.89399308 2.2147501
-0.65794146 -0.89942545 2.2130001
-0.5941571 -0.89338177 2.2102001
-0.70380729 -0.8882156 2.2156668
-0.69414061 -0.88895059 2.2175002
-0.68583333 -0.88477391 2.2132001
-0.67602253 -0.88702625 2.21525
-0.66552538 -0.88634485 2.2110002
-0.59165114 -0.88594395 2.21
-0.58809549 -0.88265461 2.2120001
-0.58611828 -0.87422514 2.2148335
-0.64098984 -0.86180931 2.2110002
-0.63582438 -0.86356157 2.2120001
-0.62843776 -0.86141956 2.21
-0.58545554 -0.8684442 2.2175002
-0.57660311 -0.86336845 2.2150002
-0.64142472 -0.85625553 2.2125001
-0.6347183 -0.85500026 2.2158751
-0.62656218 -0.85440302 2.2130001
-0.57198954 -0.85644764 2.2130003
-0.56840986 -0.85107851 2.2150002
-0.64244658 -0.84500271 2.2125001
-0.63598663 -0.84461153 2.2180002
-0.62312657 -0.84574193 2.2153337
-0.6161142 -0.84139037 2.2146666
-0.56393105 -0.84435809 2.2135
-0.72506315 -0.83172023 2.2180002
-0.64384425 -0.83394688 2.2151999
-0.61278057 -0.83579355 2.2125001
-0.60937631 -0.83059531 2.2150002
-0.55496925 -0.83450073 2.2145002
-0.50566965 -0.83345133 2.2153332
-0.65004921 -0.82203072 2.214
-0.64619285 -0.82575089 2.2148335
-0.60678148 -0.8237077 2.2130003
-0.54567432 -0.82618457 2.2141669
-0.53747678 -0.82240301 2.2113335
-0.51013386 -0.82909536 2.2110002
-0.50684077 -0.82426471 2.2145
-0.68578297 -0.81904423 2.217
-0.67532951 -0.81879789 2.2163334
-0.66513169 -0.81680793 2.2165
-0.65488046 -0.81680864 2.2165
-0.64741319 -0.81978309 2.2190001
-0.54191357 -0.81816882 2.2183332
-0.53341901 -0.81539375 2.2160001
-0.52543533 -0.81426686 2.2151668
-0.51410651 -0.81459862 2.2105002
-0.50506318 -0.81445271 2.2156665
-0.49955496 -0.81754726 2.2185001
-0.52429181 -0.80747098 2.2190001
-0.51523089 -0.80613357 2.2153332
0.99308491 -0.27568656 2.2165
-0.80596387 -0.93122137 2.2205
-0.84387195 -0.9281584 2.223
-0.82668453 -0.92732334 2.2210002
-0.70487309 -0.89716798 2.2216001
-0.69523579 -0.89651525 2.2210002
-0.63156575 -0.84311455 2.2210002
-0.62618291 -0.84255618 2.2213335
-0.56776834 -0.84497911 2.2205
-0.75282824 -0.83499235 2.2212501
-0.74457598 -0.83410895 2.2257502
-0.73639935 -0.83371645 2.2233334
-0.72982281 -0.83247024 2.22
-0.64006925 -0.83322018 2.2220001
-0.63519323 -0.83576024 2.2221999
-0.62490839 -0.83492625 2.2265558
-0.6159656 -0.83191258 2.224
-0.56173408 -0.83695292 2.2210002
-0.75163233 -0.82556337 2.2207501
-0.7482633 -0.82442766 2.2260001
-0.73113781 -0.82985687 2.2240002
-0.72448033 -0.82929718 2.2225003
-0.71359026 -0.82685745 2.2270002
-0.70455658 -0.82386887 2.2245002
-0.69570762 -0.82107615 2.2225001
-0.64124072 -0.82415831 2.2225001
-0.63456959 -0.82586551 2.2243335
-0.62943554 -0.82722872 2.2280002
-0.61075187 -0.82425845 2.22
-0.60719252 -0.82089138 2.2220001
-0.55314308 -0.82611179 2.2250001
-0.5001179 -0.82462972 2.2210002
-0.75321448 -0.81243211 2.2235999
-0.74871153 -0.81462097 2.2273333
-0.69443029 -0.81788456 2.2250001
-0.68527603 -0.81678182 2.2220001
-0.67469704 -0.81641424 2.2210002
-0.65406179 -0.81474477 2.2276666
-0.64433861 -0.81638259 2.2254002
-0.63533038 -0.81861973 2.2270002
-0.60677087 -0.81486481 2.2280002
-0.54466861 -0.8147729 2.2240002
-0.5368458 -0.81194073 2.22
-0.5001179 -0.81230646 2.2210002
-0.4953835 -0.81215334 2.2243335
-0.75660807 -0.8073929 2.2263334
-0.534585 -0.80547571 2.2248335
-0.52582181 -0.8036297 2.2219999
-0.51507366 -0.80088377 2.2235003
-0.50556183 -0.80591452 2.2246251
-0.49423447 -0.80703157 2.2253335
-0.52253199 -0.79874223 2.2290001
-0.51840949 -0.79874223 2.2290001
-0.55850506 -0.77450103 2.2245002
-0.57303208 -0.76484019 2.2223337
-0.56198698 -0.76541007 2.2220001
-0.5591327 -0.7671324 2.2270002
0.75649637 -0.30774516 2.2260001
0.99260008 -0.2822803 2.22
0.98732996 -0.2702058 2.2220001
0.99505877 -0.27063143 2.2255001
-0.74380976 -0.82427669 2.2311666
-0.735515 -0.82545102 2.2357502
-0.72608137 -0.82832837 2.2337501
-0.70725203 -0.82289028 2.233
-0.63042438 -0.82233703 2.2315001
-0.74450409 -0.81472135 2.2332501
-0.73860931 -0.81450558 2.2383335
-0.7001152 -0.81972253 2.23
-0.66565526 -0.8163296 2.2320001
-0.75480109 -0.80229944 2.2331667
-0.74568611 -0.80530506 2.234143
-0.73965913 -0.80586576 2.2373335
-0.60606849 -0.8084355 2.233
-0.76209497 -0.79509443 2.2303336
-0.75564545 -0.79492855 2.2356665
-0.74677879 -0.79644781 2.2379999
-0.73987949 -0.79782814 2.2380002
-0.77229202 -0.78260303 2.23
-0.76334488 -0.78400534 2.2340002
-0.75618088 -0.78824985 2.2372501
-0.78445929 -0.77413201 2.2333333
-0.77569288 -0.77687103 2.2338572
-0.76747966 -0.77780724 2.2340002
-0.58102852 -0.77092063 2.2320001
-0.78530896 -0.76520723 2.2377143
-0.77747941 -0.76091528 2.2390001
-0.58259046 -0.76885384 2.2380002
-0.57561088 -0.76368952 2.2350001
-0.56695867 -0.76317704 2.2335
-0.78546453 -0.75569379 2.2358003
-0.77652311 -0.75274408 2.2362502
-0.76919734 -0.75263321 2.2390001
-0.7679044 -0.74513614 2.2382503
-1.6700368 -1.0273162 2.2420001
-1.6658902 -1.0252439 2.2420001
-0.73391205 -0.81594121 2.24
-0.7445184 -0.79261875 2.2420001
-0.76159495 -0.78231865 2.2410002
-0.75469762 -0.78376234 2.2451432
-0.74551463 -0.78706616 2.2466669
-0.77287668 -0.77149439 2.2416668
-0.76629812 -0.77598578 2.2446668
-0.78196955 -0.76539803 2.24
-0.77431554 -0.765333 2.2418334
-0.76594967 -0.76456618 2.2456667
-0.75521094 -0.76352078 2.2466669
-0.74476659 -0.76346415 2.2465
-0.73935658 -0.76431376 2.2490001
-0.77195585 -0.75745022 2.2410002
-0.76434839 -0.75605339 2.243
-0.75521088 -0.75687325 2.2442002
-0.74498308 -0.75577343 2.2434001
-0.73498142 -0.75658208 2.2458003
-0.7250765 -0.75249463 2.2460003
-0.71685344 -0.75288677 2.2480001
-0.70576638 -0.75150084 2.2480001
-0.69776124 -0.75183517 2.2490001
-0.76345676 -0.74438477 2.2416003
-0.75506574 -0.74499071 2.2427144
-0.74487102 -0.74590605 2.242125
-0.73451298 -0.74518013 2.2432857
-0.72606856 -0.74580461 2.2465
-0.71439934 -0.7476756 2.2490001
-0.70400059 -0.7476756 2.2490001
-0.78456557 -0.73274529 2.2415001
-0.77537078 -0.73384976 2.244889
-0.7657969 -0.73462451 2.2472501
-0.7555452 -0.73476243 2.2476668
-0.73589891 -0.73423517 2.2486
-0.72431433 -0.73054993 2.2475002
-0.71855891 -0.7310375 2.2490001
-0.78509063 -0.72701436 2.243
-0.7744891 -0.72265059 2.2423334
-0.76400906 -0.72254276 2.2420001
-0.75301069 -0.72314972 2.2426
-0.74559581 -0.72687799 2.2490001
-0.73662162 -0.72415322 2.2470002
-0.72558361 -0.72350883 2.2450001
-0.71616012 -0.7244755 2.2480001
-0.78406274 -0.71551788 2.2460001
-0.77290338 -0.71480405 2.2437501
-0.7653712 -0.71552062 2.2460001
-0.7574262 -0.71695769 2.244
-0.73209834 -0.71408111 2.2480001
-0.72761559 -0.71653342 2.2470002
-0.71855891 -0.71023983 2.2490001
-0.68305051 -0.71424055 2.2485001
-0.55435824 -0.71185815 2.2410002
-0.82218146 -0.70992404 2.2480001
-0.73519701 -0.70192081 2.2490001
-0.72493941 -0.70419663 2.243
-0.70004815 -0.70419657 2.243
-0.69627136 -0.70458978 2.2486668
-0.68372637 -0.70518899 2.2461667
-0.67643589 -0.70345247 2.2472501
-0.6641891 -0.70368803 2.2480001
-0.73519701 -0.69568145 2.2490001
-0.69693267 -0.69485945 2.243
-0.68112314 -0.69360173 2.2490001
-0.67405927 -0.69483066 2.2462502
-0.66676253 -0.6958589 2.2473333
-0.73519701 -0.68112314 2.2490001
-0.68341404 -0.68673867 2.2456002
-0.67696363 -0.68944222 2.2490001
-0.73519701 -0.67488384 2.2490001
-0.76257288 -0.76881498 2.25
-0.75441819 -0.76898587 2.2505002
-0.74609268 -0.76898587 2.2505002
-0.71263635 -0.75633085 2.25
-0.70431358 -0.75633085 2.25
-0.7246418 -0.74129158 2.2506669
-0.71561551 -0.74269897 2.2528331
-0.76499277 -0.73585081 2.2510002
-0.75475252 -0.73601425 2.2515001
-0.74550849 -0.73599041 2.2514288
-0.73307592 -0.73723793 2.2510002
-0.72544277 -0.73585081 2.2510002
-0.71483517 -0.73483902 2.2530003
-0.74659044 -0.72159815 2.2520001
-0.7111873 -0.72368068 2.2520001
-0.7041024 -0.72496688 2.2560003
-0.75492156 -0.71743393 2.2520001
-0.74116468 -0.71406019 2.2544999
-0.73723793 -0.71503335 2.2510002
-0.72440147 -0.71399343 2.2509999
-0.71539587 -0.71539742 2.2521431
-0.70406282 -0.71406859 2.2532001
-0.69560772 -0.71437788 2.2555001
-0.68974876 -0.71055567 2.25
-0.67404693 -0.71363908 2.2531669
-0.66358429 -0.71358788 2.253
-0.65532202 -0.71366733 2.2532501
-0.64492702 -0.71369267 2.2533333
-0.94277173 -0.70472974 2.2580001
-0.82301927 -0.70827794 2.256
-0.81748646 -0.70890588 2.2580001
-0.74083591 -0.70540965 2.2535
-0.73585081 -0.70670825 2.2510002
-0.69198275 -0.70238894 2.2505002
-0.67370152 -0.70702219 2.2520001
-0.6650759 -0.70462662 2.2510002
-0.65495825 -0.70493829 2.2520003
-0.64502239 -0.70546073 2.2536666
-0.63456023 -0.70462644 2.2549999
-0.62476635 -0.70403361 2.2557781
-0.74204344 -0.6941011 2.2539999
-0.69356048 -0.69772875 2.25225
-0.68511313 -0.69761449 2.253
-0.66310644 -0.69394064 2.2528002
-0.65602481 -0.69565803 2.2556667
-0.64569104 -0.69575995 2.256
-0.63651371 -0.6959905 2.2567501
-0.74325186 -0.68487418 2.2545002
-0.73568738 -0.68782043 2.2505002
-0.67439455 -0.68480724 2.2520001
-0.66581237 -0.68595749 2.2535002
-0.65427643 -0.6855824 2.2568336
-0.64506137 -0.68683547 2.2586668
-0.76562321 -0.67161763 2.2590001
-0.74165785 -0.67698348 2.256
-0.67275882 -0.67553896 2.2535002
-0.66602618 -0.67646432 2.2577503
-0.65908355 -0.67997366 2.2590001
-0.76460648 -0.6665532 2.256
-0.74067158 -0.66983378 2.253
-0.67435777 -0.66518652 2.2542002
-0.74067158 -0.65733302 2.253
-0.67767805 -0.6568169 2.2560003
-0.72753471 -0.64271778 2.2553337
-0.69097495 -0.64094961 2.2540002
-0.68248594 -0.64705789 2.2535
-0.97125781 -0.71560848 2.266
-0.90040845 -0.71592432 2.2670002
-0.89732093 -0.71304119 2.2645001
-0.96493298 -0.70984775 2.2610002
-0.95616913 -0.70691442 2.2650001
-0.94444001 -0.70597816 2.2620001
-0.89384365 -0.70984775 2.2610002
-0.74847507 -0.70241505 2.2640002
-0.75460428 -0.68506968 2.2647998
-0.74847507 -0.68147868 2.2640002
-0.6532495 -0.68042517 2.2605
-0.64433408 -0.68196899 2.2609999
-0.77411127 -0.6756475 2.2655001
-0.76417875 -0.67624599 2.2640002
-0.75713772 -0.67429298 2.2680001
-0.74930155 -0.67594481 2.2665
-0.66274726 -0.67390347 2.2620001
-0.65522772 -0.67531782 2.263
-0.64510304 -0.67437792 2.26125
-0.63918221 -0.67475277 2.2625
-0.77133238 -0.6645782 2.2635002
-0.76443547 -0.66543841 2.2616668
-0.74781388 -0.66832596 2.2620001
-0.6710068 -0.66263229 2.2639999
-0.66577548 -0.66786915 2.2639999
-0.68117768 -0.65187973 2.263
-0.67534924 -0.65859181 2.2645001
-0.69976979 -0.64101851 2.2690001
-0.68606788 -0.64556938 2.2653334
-0.70435178 -0.63737291 2.2635002
-0.97236776 -0.71166742 2.2735
-0.96542537 -0.70909917 2.2720001
-0.94335318 -0.7077738 2.2745001
-0.75482327 -0.67503762 2.2705002
-0.76725215 -0.6622929 2.2700002
-0.69618642 -0.64158356 2.2710001
-0.99822956 -0.49431047 2.309
-0.99835175 -0.48371604 2.306
-0.99909419 -0.49046442 2.3110001
-0.99482 -0.46054503 2.3110001
-0.989259 -0.43407357 2.3180001
-0.78561956 -0.41478139 2.3180001
-0.7846216 -0.40632668 2.3138001
-0.78640372 -0.39694664 2.3140001
-0.38196385 -0.29851246 2.3140001
-0.463983 -0.28181905 2.3175001
-0.41031715 -0.28175825 2.3170002
-0.4631831 -0.27705383 2.3135002
-0.44255283 -0.27324662 2.3175001
-0.43360585 -0.27301082 2.3155003
-0.42718163 -0.27515438 2.3155003
-0.48745251 -0.26461709 2.3170002
-0.47459662 -0.26461709 2.3170002
-0.986884 -0.43491578 2.3225002
-0.98290265 -0.42753777 2.3232501
-0.97934616 -0.42248505 2.3250003
-0.98153085 -0.41943014 2.3200002
-0.97633648 -0.41310823 2.3246667
-0.97871435 -0.40502274 2.3235002
-0.78448999 -0.40244013 2.3210001
-0.97920579 -0.39447698 2.3246667
-0.78584194 -0.3988336 2.325
-0.56320441 -0.30044749 2.329
-0.56247896 -0.29575855 2.3260002
-0.50149602 -0.29316345 2.3225002
-0.49741462 -0.29544157 2.3235002
-0.43248901 -0.29941547 2.3210001
-0.42744002 -0.29701683 2.3246667
-0.40261352 -0.29954445 2.322
-0.67676938 -0.2829743 2.3270001
-0.47132623 -0.28236628 2.322
-0.45962721 -0.28309593 2.3280001
-0.43379337 -0.28309593 2.3280001
-0.42774501 -0.28576306 2.3263333
-0.50396991 -0.27401301 2.3240001
-0.49537069 -0.27401298 2.3240001
-0.47092026 -0.27783224 2.3200002
-0.45502359 -0.27645689 2.3264999
-0.43267533 -0.27807173 2.322
-0.60592031 -0.26858401 2.3235002
-0.4865666 -0.26745051 2.3230002
-0.47562078 -0.26948264 2.322
-0.97749615 -0.40504161 2.3360002
-0.97575623 -0.37495899 2.3370001
-0.97450364 -0.36368614 2.3340001
-0.97222906 -0.35546756 2.332
-0.96799821 -0.35458672 2.3356669
-0.96634167 -0.34679106 2.3316667
-0.8814196 -0.29741153 2.3390002
-0.68009019 -0.29208311 2.3310001
-0.67664874 -0.29245901 2.3340001
-0.50764263 -0.29208311 2.3310001
-0.68009019 -0.28777191 2.3310001
-0.67664874 -0.28814229 2.3340001
-0.5593769 -0.28777191 2.3310001
-0.54784983 -0.27554578 2.3370001
-0.5303337 -0.27110744 2.3360002
-0.5126127 -0.27519205 2.3340001
-0.5062474 -0.27956867 2.3345003
-0.48403347 -0.27058518 2.3315001
-0.48156878 -0.26610178 2.3300002
-1.7055573 -0.57357872 2.345
-1.7073756 -0.56767809 2.3475001
-1.7041156 -0.53260392 2.3460002
-1.7055684 -0.52871537 2.348
-0.97275758 -0.36591616 2.3436668
-0.96959466 -0.36292088 2.3430002
-0.96622252 -0.35460755 2.3453333
-0.9660852 -0.3437129 2.3450003
-0.89045209 -0.29753867 2.3400002
-0.88688165 -0.29779297 2.342
-0.92363238 -0.2864455 2.3436668
-0.91837728 -0.28732896 2.345
-1.7055731 -0.56924999 2.3540001
-1.7135588 -0.54428124 2.3590002
-1.7070212 -0.53785837 2.3500001
-1.7081103 -0.52582437 2.3545001
-1.7135588 -0.50501448 2.3590002
-1.7048441 -0.49523628 2.3540001
-1.712106 -0.4827899 2.3570001
-1.7072645 -0.48514369 2.3543334
-0.92447048 -0.28202367 2.355
-1.7099203 -0.53578234 2.3600001
-1.7131896 -0.52302003 2.3615003
-1.7164546 -0.5163579 2.3660002
-1.7135527 -0.50784004 2.362
-1.7098917 -0.50213706 2.3660002
-1.7029928 -0.49484056 2.3625002
-1.7106143 -0.48483825 2.3670001
-1.7057692 -0.487205 2.3643334
-1.7139159 -0.47954702 2.3625002
-1.7142792 -0.46216702 2.3630002
-1.7087851 -0.46304718 2.3675003
-1.7062517 -0.4567267 2.365
-1.7078825 -0.43435642 2.36625
-1.7029674 -0.42546806 2.3655
-1.6981982 -0.42372838 2.368
-1.7120324 -0.48147538 2.3720002
-1.7242006 -0.474895 2.3756669
-1.7244546 -0.4687092 2.3740001
-1.7133093 -0.46814507 2.3756001
-1.7061316 -0.4361459 2.3759999
-1.7027364 -0.42925298 2.3743336
-1.6969852 -0.42287368 2.3755002
-1.7009716 -0.41452155 2.3780003
-1.7016869 -0.40809685 2.3790002
-1.7046525 -0.37478268 2.3770001
-1.6980003 -0.43027747 2.3800001
-1.7001406 -0.41319036 2.3830001
-1.6980003 -0.417072 2.3800001
-1.7070515 -0.38510868 2.3865001
-1.7070515 -0.37628007 2.3865001
-1.7030563 -0.36706841 2.3840001
-1.6994271 -0.36015081 2.3820002
-1.69829 -0.35376194 2.3835001
-1.6940604 -0.34498543 2.3837502
-1.7062718 -0.37519109 2.3936667
-1.7049839 -0.36448419 2.3960001
-1.7017 -0.35761213 2.3945003
-1.6970038 -0.35266724 2.391
-1.6982449 -0.34719181 2.3990002
-1.6732612 -0.30453211 2.3950002
-1.6643382 -0.3036136 2.3965001
-1.6726811 -0.29960132 2.3910003
-1.66338 -0.29476091 2.3948002
-1.6627493 -0.2872929 2.3990002
-1.6640589 -0.27568567 2.3945
-1.6579335 -0.27576992 2.3952501
-1.6572407 -0.26679891 2.3942502
-1.6444725 -0.26023653 2.395
-1.6391968 -0.26045385 2.3970001
-1.6398807 -0.2516923 2.398
-1.666553 -0.30351233 2.4045
-1.6624599 -0.29690754 2.4050002
-1.6590035 -0.29185146 2.4000001
-1.6854006 -0.28813118 2.4060001
-1.671356 -0.28578648 2.4050002
-1.6617637 -0.28344548 2.4040003
-1.6596948 -0.28753242 2.401
-1.6830466 -0.27957955 2.4090002
-1.6751071 -0.27899927 2.404
-1.66008 -0.2794635 2.4080002
-1.6580117 -0.27244416 2.4050002
-1.6533308 -0.26573431 2.4046669
-1.6444924 -0.2638759 2.4080002
-1.6412483 -0.25634101 2.4000001
-1.6415836 -0.24818517 2.4070001
-1.6388556 -0.24332838 2.4030001
-1.6583765 -0.27323714 2.4120002
-1.6449935 -0.25539222 2.4120002
