# .PCD v0.7 - Point Cloud Data file format
VERSION 0.7
FIELDS x y z
SIZE 4 4 4
TYPE F F F
COUNT 1 1 1
WIDTH 1574
HEIGHT 1
VIEWPOINT 0 0 0 1 0 0 0
POINTS 1574
DATA ascii
2.2373576 -0.95405465 3.3120003
2.2366822 -0.93539548 3.3110001
2.2346005 -0.92482096 3.3170002
2.2346005 -0.91868615 3.3170002
2.2366822 -0.90477699 3.3110001
2.2253976 -0.79599017 3.3170002
2.2346005 -0.79599017 3.3170002
2.2276907 -0.97009861 3.325
2.235184 -0.97068214 3.3270001
2.2276907 -0.96394902 3.325
2.235184 -0.96452886 3.3270001
2.2331631 -0.95443779 3.3240001
2.2290308 -0.94606894 3.3270001
2.2335515 -0.94407845 3.3200002
2.2368166 -0.93683243 3.3233335
2.2365277 -0.92816669 3.3290002
2.2379689 -0.9139269 3.3220003
2.2283609 -0.80430138 3.3260002
2.2338405 -0.80405957 3.325
2.2242138 -0.79271287 3.3290002
2.2132287 -1.2922052 3.3310001
2.2288907 -0.96096808 3.3360002
2.2319736 -0.94554508 3.336
2.2371995 -0.92228669 3.3300002
2.2368038 -0.81240219 3.3340001
2.230227 -0.80102962 3.3380001
2.2136939 -1.2960845 3.3410001
2.2128005 -1.2496361 3.3490002
2.2273848 -0.9629845 3.3430002
2.2280509 -0.95090312 3.3440001
2.2311406 -0.95708787 3.3440001
2.2287173 -0.94500089 3.3450003
2.2328994 -0.94415331 3.3420002
2.2335677 -0.80841237 3.3430002
2.2105598 -1.2891054 3.3550003
2.2092421 -1.2325245 3.3530002
2.2105598 -1.2394648 3.3550003
2.2138543 -1.2537405 3.3600001
2.2138543 -1.2475263 3.3600001
2.2128961 -1.2318093 3.3680003
2.2187958 -0.8236798 3.3675003
2.2250242 -0.8236798 3.3675003
2.2071495 -1.2774959 3.3735003
2.2275167 -0.81639248 3.3760002
2.202152 -1.2818507 3.3850002
2.2164948 -1.2435522 3.3830001
2.2065871 -1.2387582 3.3870001
2.2127104 -1.2369295 3.382
2.2166376 -0.86315715 3.3880002
2.2204258 -0.86967987 3.3890002
2.2018321 -1.2871523 3.3990002
2.2081184 -1.2745794 3.3990002
2.2121248 -1.2764046 3.3955002
2.2055199 -1.2416842 3.3950002
2.2139566 -1.2474117 3.3935001
2.2174246 -0.87096298 3.3940001
2.2174246 -0.85840857 3.3940001
2.223702 -0.85840857 3.3940001
2.205071 -1.28275 3.404
2.2073383 -1.2557096 3.4075003
2.210717 -1.250904 3.4030001
2.2037754 -1.2442443 3.4020002
2.2150564 -0.90394425 3.4000001
2.2254689 -0.90434301 3.4015002
2.215167 -0.89897603 3.4050002
2.2138958 -0.86530286 3.4046669
2.2150564 -0.8599261 3.4000001
2.2191622 -0.87660861 3.4160001
2.2215712 -0.8750689 3.4100001
2.2241771 -0.85715276 3.4140003
2.2180266 -0.8976596 3.4240003
2.2206178 -0.87334794 3.4280002
2.2224104 -0.85891026 3.4210002
2.2158294 -0.84103364 3.4255002
2.1984594 -1.344473 3.4330001
2.2124462 -0.90054345 3.4350002
2.2168615 -0.89975697 3.4320002
2.1965799 -1.3408521 3.4400001
2.2004111 -1.2348433 3.4460001
2.2138002 -0.90368944 3.4470003
2.2087057 -0.86594021 3.4490001
2.2071047 -0.85575247 3.4465003
2.2131383 -0.8537395 3.442667
2.1997678 -1.2572385 3.4550002
2.1946638 -1.2369933 3.4520001
2.2138288 -0.90631115 3.4570003
2.2035995 -0.8740896 3.4560003
2.2144692 -0.8745954 3.4580002
2.2029514 -1.2526586 3.4600003
2.1971869 -1.2466196 3.4610002
2.2016308 -0.90278089 3.4680002
2.2048388 -0.89315885 3.4680002
2.199409 -0.88585126 3.4645002
2.2054982 -0.8825196 3.4640002
2.2035353 -0.92282069 3.4710002
2.2048051 -0.91692913 3.473
2.2035353 -0.90998149 3.4710002
2.2112284 -0.90408248 3.473
2.1652756 -0.97596896 3.6330001
2.1674688 -0.98337299 3.6480002
2.1680629 -0.97689366 3.6490002
2.1662805 -0.96934724 3.6460001
2.1604698 -1.0675461 3.6590002
2.1642756 -0.99850649 3.6540003
2.1616507 -1.0613586 3.6610003
2.1610601 -1.0542995 3.6600001
2.1625361 -1.0448575 3.6625004
2.1613555 -1.0036683 3.6605
2.1679902 -0.99500537 3.6660001
2.1653376 -1.0342667 3.6730001
2.1637087 -1.0045183 3.6760001
2.1761217 -0.99038166 3.6740003
2.1773062 -0.98412198 3.6760001
2.1755292 -0.97652566 3.6730001
2.1761217 -0.96999645 3.6740003
2.1604304 -1.0129678 3.6820002
2.1655984 -1.00357 3.6850002
2.1734598 -0.99226862 3.6810002
2.1577148 -0.98077947 3.6890001
2.175231 -0.98626375 3.6840003
2.15713 -0.97369266 3.6880002
2.1645377 -0.9739567 3.6890001
2.1740503 -0.97551256 3.6820002
2.1577148 -0.96713388 3.6890001
2.1639509 -0.96687168 3.6880002
2.1713605 -0.96031106 3.6890001
2.1639509 -0.95663929 3.6880002
2.1594696 -1.0020622 3.6920002
2.1668847 -1.0023336 3.6930001
2.1649356 -0.99617732 3.6955004
2.1737149 -0.99550337 3.6930001
2.1594696 -0.98840547 3.6920002
2.1671782 -0.98539281 3.6935
2.1737149 -0.985259 3.6930003
2.1719491 -0.97422069 3.6900001
2.1575131 -0.96174276 3.6945002
2.1612244 -0.95503902 3.6950002
2.164346 -0.94807684 3.6945002
2.1584718 -0.95684832 3.7020001
2.1578887 -0.94974482 3.7010002
2.1430719 -1.1356 3.7960002
2.142225 -1.1246247 3.7945001
2.1340783 -1.1453297 3.8050001
2.1388648 -1.1335799 3.8010001
2.1383021 -1.1227404 3.8000002
2.1391261 -1.1409848 3.8140001
2.1391261 -1.1339308 3.8140001
2.1364355 -1.1237884 3.8155003
2.1363976 -1.1149231 3.8133335
2.135426 -1.1498448 3.8200002
2.1404572 -1.1454722 3.8290002
2.1355205 -1.1341081 3.8265002
2.1335669 -1.1259997 3.8230002
2.1305897 -1.1156863 3.8240001
2.1371031 -1.1083239 3.8230002
2.1327286 -1.1452992 3.8363335
2.1326129 -1.1363287 3.8340001
2.1310139 -1.1231724 3.8375001
2.1344898 -1.1106433 3.8310001
2.1269605 -1.135445 3.8430002
2.1357341 -1.1149919 3.8460002
2.1324952 -1.1170212 3.8530002
2.1253898 -1.1136398 3.8660002
2.1303334 -1.1196305 3.8620002
2.1358497 -1.1153682 3.8720002
2.1286883 -1.108207 3.8720002
2.138056 -1.1093518 3.8760002
2.1213541 -0.96425188 3.8980002
2.1257079 -0.98067915 3.9060001
2.1345701 -0.98143238 3.9090002
2.1235311 -0.97245812 3.9020002
2.132386 -0.9732058 3.9050002
2.1346309 -0.96536505 3.9025002
2.1251636 -0.95514727 3.9050002
2.13184 -0.95851564 3.9040003
2.1273406 -0.94528383 3.9090002
2.1351163 -0.95275724 3.9100001
2.1362083 -0.94600934 3.9120002
2.109381 -1.1722834 3.9430001
2.1104507 -1.1655817 3.9450002
2.109916 -1.1579919 3.9440002
2.1136606 -1.1527398 3.9510002
2.1127508 -1.2148775 3.9630003
2.1130173 -1.2040336 3.9635
2.1154163 -1.1943938 3.9680002
2.1154163 -1.187055 3.9680002
2.1154163 -1.1430219 3.9680002
2.1109996 -1.2144222 3.9735003
2.1112652 -1.2035497 3.9740002
2.112859 -1.1971028 3.9770002
2.115737 -1.1856236 3.9755001
2.1207476 -1.1753318 3.9780002
2.120481 -1.16415 3.9775002
2.1175487 -1.1515205 3.9720001
2.1180818 -1.11507 3.9730003
2.1155152 -1.1838784 3.9820001
2.1187029 -1.1745976 3.9880002
2.1187029 -1.1635349 3.9880002
2.1176403 -1.1555792 3.9860003
2.1171091 -1.1479191 3.9850001
2.1187029 -1.11928 3.9880002
2.1134448 -1.2237675 3.9920001
2.1145036 -1.2169938 3.9940002
2.1150329 -1.2062154 3.9950001
2.1150329 -1.1951321 3.9950001
2.1166213 -1.1886353 3.9980001
2.1076155 -1.2363937 4.0090003
2.1049159 -1.2391692 4.0180001
2.1086669 -1.2295921 4.0110002
2.1146634 -1.1955671 4.013
2.1021826 -1.2419449 4.0270004
2.1080589 -1.2335774 4.0240002
2.108583 -1.2264396 4.0250001
2.1096306 -1.2047052 4.0270004
2.1096306 -1.1972573 4.0270004
2.1141872 -1.1844649 4.0215006
2.0978558 -1.2437954 4.033
2.1031468 -1.2372561 4.0360003
2.1068807 -1.2260582 4.0360003
2.1079249 -1.2154642 4.0380001
2.1076639 -1.2041123 4.0375004
2.1004567 -0.9914155 4.0380001
2.0971348 -1.2552876 4.046
2.0981715 -1.2484214 4.0480003
2.1020172 -1.2313149 4.0410004
2.1030574 -1.2244468 4.0430002
2.1040978 -1.2138307 4.0450001
2.1046181 -1.2029061 4.046
2.0992081 -1.2640193 4.0500002
2.1012814 -1.242774 4.0540004
2.1028364 -1.2361902 4.0570002
2.1072187 -1.1969002 4.0510001
2.1082592 -1.1899952 4.053
2.0963659 -0.99657148 4.059
2.1012814 -0.99534386 4.0540004
2.0984318 -1.2643201 4.0630002
2.0999813 -1.2539728 4.066
2.1080196 -1.1113645 4.0670004
2.1004977 -0.99101371 4.0670004
2.105428 -0.98979533 4.0620003
2.0970929 -1.2718217 4.0750003
2.0965781 -1.2639748 4.0740004
2.0978646 -1.2534398 4.0764999
2.1046295 -1.1210873 4.0750003
2.1068439 -1.1164945 4.0720005
2.106179 -1.1068282 4.0780001
2.1035967 -0.98494273 4.0730004
2.1106112 -0.98470092 4.072
2.1027536 -1.1165565 4.086
2.1022391 -1.1087281 4.085
2.1001806 -1.0019729 4.0810003
2.1012099 -0.99491245 4.0830002
2.1022391 -0.98784459 4.085
2.1048121 -1.1252141 4.0900002
2.0831771 -1.3197887 4.1070004
2.0897548 -1.2432239 4.105
2.0945692 -1.2362337 4.1070004
2.0983689 -1.0083565 4.1070004
2.1028883 -1.0068834 4.1010003
2.0993907 -0.99364835 4.1090002
2.1031446 -0.99562705 4.1015005
2.0887566 -1.2547772 4.118
2.0923004 -1.2599411 4.1100001
2.0867279 -1.2459496 4.1140003
2.0882494 -1.2392437 4.1170001
2.0933185 -1.2301335 4.112
2.1004126 -1.0017353 4.1110001
2.0902784 -1.2633132 4.1210003
2.0854361 -1.2459197 4.1265001
2.0902784 -1.232826 4.1210003
2.094336 -0.97557497 4.1290002
2.0864096 -1.264084 4.1360006
2.0843937 -1.2552211 4.132
2.08007 -1.2434578 4.131
2.0843928 -1.2361166 4.132
2.0933003 -1.1986308 4.1345
2.094821 -1.1765435 4.1374998
2.0897317 -0.97699267 4.1350002
2.0846016 -1.2767947 4.1400003
2.0856087 -1.2697508 4.1420002
2.0809581 -1.248575 4.1480002
2.0866158 -1.2320422 4.1440001
2.0888817 -1.1758347 4.1485004
2.0932693 -1.1701626 4.1420002
2.0955439 -1.1445938 4.1465001
2.0824633 -1.2571553 4.151
2.0824633 -1.2418007 4.151
2.0916512 -1.1658698 4.1540003
2.0906441 -0.9810093 4.1520004
2.0663772 -1.7004763 4.165
2.0735824 -1.3612096 4.164
2.0899885 -1.1769428 4.1660004
2.0904901 -1.1695185 4.1670003
2.0659912 -1.6956182 4.1719999
2.0870318 -1.1757658 4.1754999
2.0882814 -1.1648785 4.178
2.0622969 -1.6943753 4.1880002
2.0700424 -1.3613095 4.1880002
2.0719309 -1.352271 4.184
2.0892811 -1.1577052 4.1800003
2.0677135 -1.3726511 4.1990004
2.0652514 -1.3632598 4.1940002
2.064759 -1.3551798 4.1930003
2.0686984 -1.6918651 4.2010002
2.070668 -1.6856987 4.2050004
2.0648532 -1.360351 4.2090001
2.0682058 -1.3496742 4.2000003
2.0658343 -1.3687856 4.211
2.0658343 -1.3532091 4.211
2.0833881 -1.144012 4.2150002
2.0815015 -1.1550868 4.2270002
2.0810091 -1.1469975 4.2260003
2.0472441 -2.0981803 4.237
2.0599954 -1.3596362 4.2310004
2.0609694 -1.3524499 4.2330003
2.0486937 -1.9036187 4.2400002
2.0451837 -1.8840837 4.2490001
2.0501432 -1.8814232 4.243
2.0761292 -0.9408381 4.2480001
2.0573909 -2.12433 4.2580004
2.0554583 -2.1144667 4.2540002
2.0480719 -1.9024836 4.2550001
2.054975 -1.9015894 4.2530003
2.0544918 -1.8932781 4.2520003
2.07022 -1.4764817 4.2520003
2.0692463 -0.97272259 4.25
2.0697331 -0.96508926 4.2510004
2.0613859 -0.95700181 4.25
2.0726545 -0.95857805 4.257
2.080039 -0.95048141 4.256
2.0736282 -0.94327438 4.2590003
2.0771067 -0.93342066 4.25
2.0790615 -0.92643142 4.2540002
2.0469148 -2.129818 4.2690001
2.0519223 -2.1268246 4.263
2.0504785 -2.1174488 4.2600002
2.044997 -1.9069548 4.2650003
2.0519223 -1.8981761 4.263
2.0469148 -1.7666237 4.2690001
2.0667212 -0.95159805 4.2610002
2.0746019 -0.95159805 4.2610002
2.0701165 -0.94526768 4.2680001
2.0730886 -0.93693471 4.2659998
2.0418851 -2.1328113 4.2750001
2.0488329 -2.1239107 4.2730002
2.0488329 -1.9026288 4.2730002
2.0488329 -1.8947258 4.2730002
2.0670545 -1.4775978 4.2780004
2.0567358 -0.97798675 4.2730002
2.0363574 -2.1273899 4.2800002
2.0447509 -2.127887 4.2810001
2.0452287 -1.8987166 4.2820001
2.0461838 -1.7728312 4.2840004
2.0526688 -1.763672 4.2810001
2.056025 -1.7506945 4.2880001
2.0550661 -1.741951 4.2860003
2.0550661 -1.7340239 4.2860003
2.0634744 -1.4846709 4.2870002
2.0694704 -0.95651126 4.283
2.0523932 -1.7702636 4.2970004
2.0574636 -1.7598555 4.2910004
2.0514379 -1.7456088 4.2950001
2.0504825 -1.736856 4.2930002
2.0547812 -1.7643669 4.302
2.0538261 -1.7555938 4.3000002
2.0627379 -1.4938439 4.302
2.0627379 -1.4779308 4.302
2.0660942 -0.92247021 4.309
2.0389371 -1.9151231 4.3190002
2.0520585 -1.6811323 4.3130002
2.054913 -1.0124791 4.3190002
2.0520585 -1.0030956 4.3130002
2.0665736 -0.93065566 4.3100004
2.0675328 -0.91513741 4.3120003
2.03283 -1.900906 4.3230004
2.0455313 -1.9055641 4.3245001
2.047399 -1.6838609 4.3200002
2.0537653 -1.6778107 4.3249998
2.0662446 -0.92610961 4.3260002
2.0652893 -0.9176842 4.3240004
2.0535603 -1.6729002 4.3330002
2.0535603 -1.6648864 4.3330002
2.0221391 -2.1797082 4.3690004
2.0205123 -2.186693 4.3830004
2.0232782 -1.9623972 4.3890004
2.0232782 -1.9542798 4.3890004
2.0252581 -1.7982024 4.3845005
2.0244443 -1.7878637 4.3856673
2.0304701 -1.7830002 4.3870001
2.0255833 -2.1840541 4.3940001
2.0318587 -2.182066 4.3900003
2.0283492 -1.9510399 4.4000001
2.022048 -1.9446684 4.4040003
2.0234253 -1.7829779 4.4070001
2.0252619 -2.1925039 4.4110003
2.032959 -1.9473178 4.4100003
2.0257211 -1.8258009 4.4120002
2.0193901 -1.8192888 4.4160004
2.0203047 -1.7874284 4.4180002
2.0257211 -1.7768409 4.4120002
2.0303123 -2.1897931 4.4220004
2.0153217 -1.9662137 4.4250002
2.0157771 -1.9543829 4.4260001
2.023963 -1.946197 4.4260001
2.032608 -1.9466368 4.427
2.0162325 -1.8361013 4.427
2.0254686 -1.8359432 4.4233336
2.0166881 -1.7914741 4.428
2.0244203 -1.7828819 4.427
2.0330672 -1.775095 4.428
2.023963 -1.7006201 4.4260001
2.0273654 -1.6959491 4.4245
2.0303123 -1.6909046 4.4220004
2.0312307 -1.6834873 4.4240003
2.0175989 -1.9479558 4.4300003
2.0203316 -1.7865064 4.4360003
2.0299077 -1.7384549 4.4390001
2.0280786 -1.7286859 4.4350004
2.0358222 -1.728296 4.434
2.0257921 -1.6857705 4.4300003
2.0276213 -1.6790919 4.434
2.0339856 -1.6775771 4.4300003
2.0093436 -2.2108951 4.4480004
2.0175703 -2.2108951 4.4480004
2.0093436 -2.2026684 4.4480004
2.0150754 -1.973992 4.4425001
2.0175703 -1.7995657 4.4480004
2.0312796 -1.7807072 4.4420004
2.0335662 -1.7580374 4.447
2.0262523 -1.7341428 4.4490004
2.0248859 -1.7247505 4.4460001
2.0235195 -1.7153695 4.4430003
2.0226088 -1.7063836 4.441
2.0235195 -1.6948261 4.4430003
2.0248859 -1.6836362 4.4460001
2.0106988 -2.2206182 4.4510002
2.0111506 -2.1964152 4.4520001
2.0189309 -2.1712255 4.4510002
2.0106988 -1.95719 4.4510002
2.021199 -1.7945609 4.4560003
2.0276186 -1.784716 4.4520001
2.0303512 -1.7788763 4.4580002
2.0283017 -1.7647269 4.4535003
2.0276186 -1.7517802 4.4520001
2.027163 -1.7431545 4.4510002
2.0225596 -1.7050529 4.4590001
2.0225596 -1.696806 4.4590001
2.0267076 -1.6769205 4.4500003
2.028074 -1.6656954 4.4530001
2.0308068 -1.6555713 4.4590001
2.0308068 -1.6473244 4.4590001
2.0303512 -1.6304648 4.4580002
2.0294404 -1.6214919 4.4560003
2.0294404 -1.6132505 4.4560003
2.0303512 -1.6057296 4.4580002
2.0069656 -2.2256074 4.4610004
2.0069656 -2.2173567 4.4610004
2.0074155 -2.2096014 4.4620004
2.0170233 -2.1945708 4.4650002
2.0078654 -2.1853335 4.4630003
2.0152164 -1.9698378 4.4610004
2.0126657 -1.8062413 4.4645004
2.0266421 -1.774603 4.4680004
2.0183785 -1.7663394 4.4680004
2.0239205 -1.7639674 4.4620004
2.0188303 -1.7584693 4.4690003
2.024374 -1.7561084 4.4630003
2.0257349 -1.7448981 4.4660001
2.0252812 -1.7321213 4.4650002
2.0248277 -1.7234771 4.4640002
2.0234668 -1.7140683 4.4610004
2.0183785 -1.7084944 4.4680004
2.0174749 -1.6953397 4.4660001
2.0241473 -1.6857563 4.4625006
2.0257349 -1.6746901 4.4660001
2.0266421 -1.6671765 4.4680004
2.0261884 -1.6585417 4.467
2.0257349 -1.6457806 4.4660001
2.0261884 -1.6337564 4.467
2.0312622 -1.6394451 4.46
2.0266421 -1.6258585 4.4680004
2.0270956 -1.6179571 4.4690003
2.0266421 -1.6093315 4.4680004
2.0248277 -1.5996345 4.4640002
2.0312622 -1.5982012 4.46
2.0040915 -2.2150486 4.473
2.0206373 -2.1902301 4.473
2.0206373 -1.9834095 4.473
2.0110147 -1.973812 4.4700003
2.0150638 -1.8038237 4.4790001
2.0206373 -1.8014073 4.473
2.0254493 -1.7937359 4.4745002
2.0289099 -1.7848617 4.473
2.0210888 -1.776986 4.474
2.0197337 -1.7509872 4.4710002
2.0206373 -1.7434976 4.473
2.0206373 -1.7352247 4.473
2.0201855 -1.7265658 4.4720001
2.0192819 -1.7175264 4.4700003
2.0150638 -1.6961328 4.4790001
2.0192819 -1.6844573 4.4700003
2.0197337 -1.6765651 4.4710002
2.0206373 -1.6649058 4.473
2.0201855 -1.652127 4.4720001
2.0201855 -1.6438562 4.4720001
2.0215406 -1.6366824 4.4750004
2.0219924 -1.6246306 4.4760003
2.0215406 -1.6118528 4.4750004
2.0215406 -1.6035763 4.4750004
2.0228958 -1.5963693 4.4780002
2.0090201 -2.237082 4.4840002
2.0081239 -2.2277949 4.4820004
2.0173132 -1.9882871 4.4840002
2.0237994 -1.7876549 4.48
2.0186629 -1.7738507 4.487
2.018213 -1.7651585 4.4860001
2.018213 -1.7568616 4.4860001
2.0195627 -1.7497342 4.4890003
2.0186629 -1.7157596 4.487
2.0168633 -1.7059388 4.4830003
2.0164135 -1.6848336 4.4820004
2.0191128 -1.6746392 4.4880004
2.0195627 -1.6584076 4.4890003
2.026058 -1.5905696 4.4850001
2.0274134 -1.583333 4.4880004
2.0274134 -1.5667318 4.4880004
2.0265098 -1.5577368 4.4860001
2.0258322 -1.5447733 4.4844999
2.0278649 -1.5338713 4.4890003
2.0209122 -1.8007512 4.4920001
2.0231616 -1.7944385 4.4970002
2.0213621 -1.7845325 4.493
2.0209122 -1.7425954 4.4920001
2.0209122 -1.7342875 4.4920001
2.0204625 -1.7255954 4.4910002
2.0130525 -1.7014344 4.493
2.0126042 -1.6927477 4.4920001
2.0139484 -1.6855648 4.4950004
2.0200126 -1.6670812 4.4900002
2.0204625 -1.6508403 4.4910002
2.0213621 -1.6432656 4.493
2.021812 -1.6353197 4.4940004
2.0222619 -1.6273701 4.4950004
2.0213621 -1.6183362 4.493
2.0204625 -1.6051567 4.4910002
2.0222619 -1.5941161 4.4950004
2.0236115 -1.5868609 4.4980001
2.0287685 -1.5760852 4.4910002
2.0008762 -1.9883837 4.5030003
2.019325 -1.7484145 4.5070004
2.019773 -1.7237897 4.5080004
2.0170848 -1.713169 4.5020003
2.0114355 -1.682102 4.5080004
2.0179811 -1.6764424 4.5040002
2.019325 -1.6650574 4.5070004
2.020221 -1.6574569 4.5090003
2.0175328 -1.6219381 4.5030003
2.0179808 -1.5848098 4.5040007
2.0263109 -1.5806475 4.5040002
2.0267608 -1.5726664 4.5050001
2.023041 -1.5646818 4.5060005
2.0245113 -1.5542755 4.5
2.0225911 -1.5476704 4.5050001
2.025861 -1.538655 4.5030003
2.0281105 -1.4903382 4.5080004
2.0272107 -1.4813432 4.506
2.0158973 -1.7526817 4.5180001
2.0220132 -1.7423953 4.513
2.0163436 -1.727996 4.5190001
2.012774 -1.7165937 4.5110002
2.0136664 -1.6756208 4.513
2.0136664 -1.667274 4.513
2.015228 -1.6560357 4.5165005
2.0163436 -1.6444169 4.5190001
2.0213413 -1.6458594 4.5115004
2.0229094 -1.6346109 4.5150003
2.0158973 -1.5855607 4.5180001
2.0211172 -1.574761 4.5110002
2.0215652 -1.5417303 4.5120001
2.0238054 -1.5016677 4.5170002
2.0259607 -1.4959974 4.5125003
2.0185745 -1.7466422 4.5240002
2.0194669 -1.7390435 4.526
2.0093186 -1.6873258 4.5220003
2.0119848 -1.6811901 4.5280004
2.0119848 -1.6728156 4.5280004
2.0176821 -1.6371452 4.5220003
2.0176821 -1.6246009 4.5220003
2.0187976 -1.5752892 4.5244999
2.0199132 -1.5636011 4.5270004
2.0208056 -1.5559155 4.5290003
1.996117 -2.2600317 4.5300002
2.0075927 -1.8649433 4.5370002
2.0067077 -1.851539 4.5350003
2.0058227 -1.8423387 4.533
2.0067077 -1.834764 4.5350003
2.0128734 -1.6651763 4.5300002
2.0159838 -1.6551616 4.5370002
2.0168724 -1.6181152 4.539
2.0146508 -1.6079471 4.5340004
2.0139842 -1.5948403 4.5325003
2.0159838 -1.5838375 4.5370002
2.0164282 -1.5757935 4.5380001
2.0228133 -1.5448811 4.5335002
2.0212517 -1.5059896 4.5300002
2.0016251 -1.8335954 4.5425005
2.0089202 -1.8283902 4.5400004
2.0186498 -1.6447481 4.5430002
2.0190942 -1.636706 4.5440001
2.0186498 -1.6279435 4.5430002
2.011575 -1.6122028 4.546
2.0120175 -1.570509 4.5470004
2.0182056 -1.5687821 4.5420003
2.0204272 -1.5620993 4.5470004
2.0199828 -1.5113088 4.546
2.0199828 -1.4860853 4.546
2.0208716 -1.4783275 4.5480003
1.9995861 -1.8352365 4.5570002
2.0155575 -1.640668 4.5550003
2.0146725 -1.6315268 4.5530005
2.013345 -1.6220366 4.5500002
2.015115 -1.5645041 4.5540004
2.016 -1.5567648 4.5560002
2.016 -1.5146332 4.5560002
1.9933426 -2.2675591 4.5620003
2.0039742 -1.8308172 4.5670004
2.0039742 -1.8139238 4.5670004
2.0030966 -1.8046865 4.5650001
2.0044129 -1.797424 4.5680003
2.0144343 -1.6516268 4.5620003
2.0128615 -1.6453505 4.5680003
2.0128615 -1.636902 4.5680003
2.0119801 -1.6108508 4.566
2.0097768 -1.6006513 4.5610003
2.0097768 -1.5922157 4.5610003
2.0093362 -1.5834329 4.5600004
2.0115395 -1.5767261 4.5650001
2.0186551 -1.4744408 4.5620003
1.9968382 -2.2630835 4.5700002
2.0052905 -1.8235676 4.5700002
2.013963 -1.6251185 4.5705004
2.0155053 -1.571375 4.5740004
2.0155053 -1.5206172 4.5740004
2.0146239 -1.5114964 4.572
2.0141833 -1.5027118 4.5710001
2.0163865 -1.4958923 4.5760002
1.9949125 -2.0161123 4.585
2.0025184 -1.8202788 4.5830002
2.0025184 -1.8118025 4.5830002
2.0020816 -1.8029327 4.5820003
2.0096784 -1.5988485 4.5800004
2.0123112 -1.5924612 4.5860004
1.9898984 -2.0196302 4.5930004
1.9988283 -1.8246478 4.5940003
1.9992634 -1.8165464 4.5950003
1.9992634 -1.808048 4.5950003
1.9996985 -1.7999412 4.5960002
2.0055771 -1.7975913 4.5900002
1.9996985 -1.76594 4.5960002
2.0060141 -1.7640188 4.5910001
2.0064511 -1.75591 4.592
2.0086358 -1.6047831 4.5970001
1.9857177 -2.0240273 4.6030002
1.9857177 -2.0155141 4.6030002
2.0063453 -1.7935846 4.6015005
2.0044847 -1.7872078 4.6070004
2.0023091 -1.7767568 4.6020002
2.0050001 -1.7539315 4.6016669
2.0053546 -1.7283132 4.6090002
2.0108204 -1.5214144 4.6020002
2.0108204 -1.512903 4.6020002
1.9864092 -2.0120151 4.6145
2.0062249 -1.7461193 4.6110001
2.0084004 -1.5175055 4.6160002
2.0092707 -1.501081 4.618
1.9749845 -2.0482118 4.658
1.9743904 -2.3333704 4.677
1.9813445 -2.0634503 4.6730003
1.9731239 -2.0552473 4.6740003
1.9739683 -1.874513 4.6760001
1.9781897 -2.3291938 4.6860003
1.9699433 -2.0869696 4.6870003
1.976079 -2.0842979 4.6810002
1.9786118 -2.0696323 4.6870003
1.969523 -2.0518572 4.6860003
1.9707838 -1.8797245 4.6890001
1.976079 -1.86786 4.6810002
1.9767122 -1.8554685 4.6824999
1.9765011 -1.8422809 4.6820002
1.9777676 -1.8347964 4.6850004
1.9716245 -2.3403552 4.691
1.9633669 -2.3321762 4.6920004
1.9728854 -2.3331702 4.6940002
1.9728854 -2.0814049 4.6940002
1.9749868 -2.0662403 4.6990004
1.9716245 -1.8718503 4.691
1.9733056 -1.864763 4.6950002
1.9737259 -1.8564749 4.6960001
1.9728854 -1.8470026 4.6940002
1.9730954 -1.8341743 4.6945
1.9824111 -1.8130486 4.6960001
1.9779289 -2.0780222 4.7060003
1.9667145 -2.0579875 4.7000003
1.9754071 -1.8232856 4.7000003
1.9783492 -1.8172956 4.7070003
1.9864216 -1.803659 4.7055001
2.0040402 -0.78986603 4.7060003
1.9634377 -2.0811131 4.7130003
1.9721544 -2.0811131 4.7130003
1.970899 -2.0710773 4.71
1.9713174 -1.9495349 4.7110004
1.9725728 -1.815636 4.7140002
1.9804507 -1.8105111 4.7120004
1.9817116 -1.8029433 4.7150002
1.9856497 -1.7938424 4.7140002
1.9742466 -1.7866386 4.7180004
1.9804507 -1.7843665 4.7120004
1.9742466 -1.7779126 4.7180004
1.9804507 -1.7756517 4.7120004
1.974665 -1.7695616 4.7190003
1.9808711 -1.7673118 4.7130003
1.9812913 -1.7546089 4.7140002
1.9941553 -0.79112482 4.7135
2.0057435 -0.79924852 4.71
1.9688535 -1.8246311 4.7260003
1.9750835 -1.8048552 4.7200003
1.9750835 -1.7961257 4.7200003
1.9759203 -1.7619534 4.7220001
1.9763389 -1.7535913 4.723
1.9780127 -1.7463338 4.7270002
1.9838132 -1.7437477 4.7200003
1.9863349 -1.7110014 4.7260003
1.9842334 -1.7004597 4.7210002
1.9863349 -1.6935198 4.7260003
1.9938092 -0.80145454 4.723
2.0016963 -0.80111516 4.7210002
1.9709364 -1.8178115 4.7310004
1.9719779 -1.8056397 4.7335005
1.9726028 -1.7930763 4.7350001
1.9730195 -1.7846957 4.7360001
1.9809418 -1.7138977 4.7340002
1.9796864 -1.7040616 4.7310004
1.9809418 -1.6963866 4.7340002
1.998875 -0.81224823 4.7350001
1.9638088 -1.8321598 4.7455001
1.9692372 -1.8243434 4.7480001
1.9696519 -1.8159444 4.7490001
1.9746858 -1.7774364 4.7400002
1.9757273 -1.7652166 4.7425003
1.9763522 -1.7526143 4.7440004
1.9759356 -1.7434726 4.743
1.9755191 -1.7343347 4.7420001
1.9763522 -1.7262921 4.7440004
1.9771855 -1.7182422 4.7460003
1.9771855 -1.7050745 4.7460003
1.9771855 -1.6304648 4.7460003
1.977602 -1.6220287 4.7470002
1.9637589 -1.8274174 4.756
1.9645848 -1.814985 4.7580004
1.971311 -1.804287 4.7530003
1.9721404 -1.7918556 4.7550001
1.9788518 -1.6933349 4.75
1.9792684 -1.6849045 4.7510004
1.9813515 -1.6778814 4.756
1.9765348 -1.6423512 4.7550001
1.9721404 -1.6335567 4.7550001
1.9725552 -1.6163077 4.756
1.9821846 -1.6169875 4.7580004
1.9658235 -1.8029221 4.7610002
1.9662364 -1.7944934 4.7620001
1.9683009 -1.7875611 4.7670002
1.9742142 -1.7849362 4.7600002
1.9754585 -1.777252 4.763
1.9760807 -1.7645932 4.7645006
1.9758732 -1.751192 4.7640004
1.9750437 -1.7416495 4.7620001
1.9687138 -1.7350255 4.7680001
1.9746289 -1.7324783 4.7610002
1.9683009 -1.725845 4.7670002
1.9746289 -1.7236727 4.7610002
1.9683009 -1.7170284 4.7670002
1.9742142 -1.7145071 4.7600002
1.9687138 -1.7085702 4.7680001
1.9746289 -1.7060618 4.7610002
1.9754585 -1.6979693 4.763
1.976288 -1.6898694 4.7650003
1.977947 -1.6736474 4.7690001
1.9748363 -1.6049669 4.7615004
1.9611285 -1.8331809 4.7710004
1.9615396 -1.8247393 4.7720003
1.9623617 -1.8166745 4.7740002
1.9631838 -1.8086023 4.776
1.9631838 -1.7997692 4.776
1.9703654 -1.7806102 4.7720003
1.9707783 -1.7721556 4.7730002
1.9707783 -1.763328 4.7730002
1.9703654 -1.7541326 4.7720003
1.9695396 -1.7445754 4.7700005
1.9699525 -1.7008213 4.7710004
1.9707783 -1.6927066 4.7730002
1.976017 -1.6845844 4.7750006
1.9800208 -1.6665726 4.7740002
1.972017 -1.6451887 4.776
1.9716041 -1.6139334 4.7750001
1.972017 -1.6054382 4.776
1.9728428 -1.5972736 4.7780004
1.9732558 -1.5887692 4.7790003
1.9732558 -1.5799304 4.7790003
1.9580333 -1.84741 4.7850003
1.9580333 -1.8385601 4.7850003
1.9584426 -1.825666 4.7860003
1.9596702 -1.8135253 4.789
1.9592609 -1.8042911 4.7880001
1.964828 -1.7924359 4.7800002
1.9668832 -1.7854609 4.7850003
1.9672943 -1.7769823 4.7860003
1.9677054 -1.7685001 4.7870002
1.9672942 -1.754854 4.7860003
1.9660611 -1.7404838 4.783
1.9660611 -1.7316376 4.783
1.9664721 -1.7231517 4.7840004
1.9672943 -1.7150203 4.7860003
1.9685274 -1.7072381 4.789
1.976146 -1.6751866 4.7860003
1.9753202 -1.6612155 4.7840004
1.9681164 -1.6360383 4.7880001
1.9685274 -1.6275227 4.789
1.9773847 -1.5478073 4.789
1.9773847 -1.5389501 4.789
1.9604886 -1.7965608 4.7910004
1.96233 -1.7849438 4.7954998
1.9637622 -1.7729334 4.7990003
1.9637622 -1.7463061 4.7990003
1.9637622 -1.7374303 4.7990003
1.9689385 -1.6987355 4.7900004
1.9705827 -1.6912875 4.7940001
1.972638 -1.6841757 4.7990003
1.9722269 -1.6572031 4.7980003
1.9705827 -1.6469549 4.7940001
1.9714048 -1.6210314 4.796
1.9718158 -1.6124973 4.7970004
1.972638 -1.5954181 4.7990003
1.9709938 -1.58522 4.7950001
1.9705827 -1.5671563 4.7940001
1.9714048 -1.5589399 4.796
1.9777976 -1.5304123 4.7900004
1.9484437 -2.3527958 4.8050003
1.9472272 -2.3424454 4.802
1.9552938 -1.7910579 4.8000002
1.9557011 -1.7825516 4.8010001
1.9573306 -1.7751499 4.8050003
1.9585526 -1.7673659 4.8080001
1.9641714 -1.7644252 4.8000002
1.9585526 -1.7584735 4.8080001
1.9641714 -1.7555475 4.8000002
1.9577379 -1.7488533 4.8060002
1.9577379 -1.7355202 4.8060002
1.9585526 -1.7229038 4.8080001
1.9645805 -1.7248342 4.8010001
1.9662174 -1.712942 4.8050003
1.9666266 -1.7044097 4.8060002
1.9670358 -1.6958739 4.8070002
1.9742821 -1.6766963 4.8030005
1.9678543 -1.6698966 4.809
1.9742821 -1.6678132 4.8030005
1.9658082 -1.6548338 4.8040004
1.9670358 -1.6247494 4.8070002
1.9670358 -1.6158588 4.8070002
1.9678543 -1.6076368 4.809
1.973049 -1.6046282 4.8000002
1.9666266 -1.5888566 4.8060002
1.9738711 -1.5520089 4.802
1.9759264 -1.5447344 4.8070002
1.9759264 -1.5358438 4.8070002
1.9759264 -1.5269532 4.8070002
1.9763374 -1.5183785 4.8080001
1.9767485 -1.5098001 4.809
1.9435934 -2.3665977 4.8150001
1.9448043 -2.3591614 4.8180003
1.9444007 -2.3497627 4.8170004
1.9529042 -1.7747574 4.816
1.9541208 -1.7446711 4.8190002
1.9593673 -1.7147244 4.8100004
1.9601821 -1.7065376 4.8120003
1.9614041 -1.6942416 4.8150005
1.9686726 -1.688387 4.8110003
1.9707186 -1.6812346 4.8160005
1.9622188 -1.6459475 4.8170004
1.9686726 -1.5994074 4.8110003
1.9699003 -1.5469838 4.8140001
1.9741446 -1.5023103 4.8135004
1.9747593 -1.4938731 4.8150005
1.9747593 -1.4849677 4.8150005
1.9403133 -2.3645475 4.829
1.9545263 -1.7628623 4.8200002
1.9545263 -1.7539477 4.8200002
1.9545263 -1.7361186 4.8200002
1.9553373 -1.7279207 4.822
1.9565537 -1.7156088 4.8250003
1.9577702 -1.7032825 4.8280001
1.9634409 -1.6826309 4.8200002
1.9638482 -1.6740636 4.8210001
1.9634409 -1.6648017 4.8200002
1.9638482 -1.6562307 4.8210001
1.9644592 -1.6344457 4.8225002
1.9671071 -1.6232541 4.829
1.9662924 -1.5868715 4.8270001
1.9654776 -1.5772902 4.8250003
1.9662924 -1.5556242 4.8270001
1.9671071 -1.5428728 4.829
1.9411169 -2.3565919 4.8310003
1.943126 -2.1264818 4.8360004
1.9504555 -1.7225672 4.8320003
1.9512628 -1.7143397 4.8340001
1.9524738 -1.7064576 4.8370004
1.9589868 -1.695406 4.8310003
1.9597977 -1.6871692 4.8330002
1.9602033 -1.6785778 4.8340001
1.9608116 -1.6656833 4.8355002
1.9614198 -1.6527814 4.8370004
1.9622308 -1.644515 4.8390002
1.9683291 -1.6153257 4.8320003
1.9683291 -1.6063889 4.8320003
1.9675144 -1.5967909 4.8300004
1.9675144 -1.5342592 4.8300004
1.9683291 -1.5259577 4.8320003
1.9687364 -1.5173349 4.8330002
1.9697549 -1.5047045 4.8355002
1.9365815 -2.370913 4.842
1.9381813 -2.363909 4.8460002
1.9546938 -1.6949623 4.8425002
1.9561067 -1.6827446 4.8460002
1.9569139 -1.6744728 4.848
1.9552994 -1.6551732 4.8440003
1.9565103 -1.6472337 4.8470001
1.9634473 -1.6365793 4.842
1.9656776 -1.6249895 4.8474998
1.9658804 -1.611708 4.848
1.9658804 -1.6027417 4.848
1.9654748 -1.5934465 4.8470001
1.9646639 -1.5838282 4.8450003
1.9642583 -1.5745423 4.8440003
1.9642583 -1.5655833 4.8440003
1.9646639 -1.5569457 4.8450003
1.9656775 -1.5442995 4.8475003
1.9544415 -1.6672242 4.8530006
1.9581249 -1.6351342 4.8510003
1.9585285 -1.6220117 4.8520002
1.9589323 -1.6133703 4.8530002
1.9589323 -1.6043947 4.8530002
1.9589323 -1.595419 4.8530002
1.9597396 -1.5870972 4.855
1.9675024 -1.5322738 4.8520002
1.9679079 -1.5236139 4.8530002
1.9687189 -1.5152625 4.855
1.9687189 -1.4973038 4.855
1.953171 -1.660982 4.8610001
1.9539746 -1.6526713 4.8630004
1.9543765 -1.6440152 4.8640003
1.9539746 -1.634683 4.8630004
1.95518 -1.6041908 4.8660002
1.9621614 -1.535116 4.8610001
1.9575909 -1.5836437 4.8720002
1.9575909 -1.5746329 4.8720002
1.9575909 -1.5656222 4.8720002
1.9579927 -1.5569309 4.8730001
1.9595999 -1.5491889 4.8770003
1.9666016 -1.4665036 4.8720002
1.9549794 -1.5617235 4.888
1.9616089 -1.5417478 4.8820004
1.9620107 -1.5330325 4.8830004
1.9624125 -1.5243136 4.8840003
1.9620107 -1.5149703 4.8830004
1.9616089 -1.5056307 4.8820004
1.9620107 -1.4969081 4.8830004
1.9638188 -1.484728 4.8874998
1.9569792 -1.5542713 4.8930001
1.9558603 -1.5460901 4.905333
1.9601789 -1.5205549 4.901
1.956641 -1.5122615 4.9035001
1.9601789 -1.502426 4.901
1.9550954 -1.5327404 4.9110003
1.9546974 -1.5233471 4.9100003
1.9367363 -1.3454015 4.9570003
1.9386899 -1.3375813 4.9620004
1.9390806 -1.3286718 4.9630003
1.9406434 -1.3205562 4.967
1.9330124 -1.3124257 4.9710002
1.9341789 -1.3040184 4.9740005
1.9476762 -0.87357312 4.9850001
1.9508018 -0.88420957 4.993
1.9515833 -0.86608726 4.9950004
1.9362028 -1.283862 5.0030003
1.9381378 -1.2758828 5.0080004
1.9281052 -1.2475975 5.006
1.9385248 -1.2483451 5.0090003
1.9385248 -1.239081 5.0090003
1.9389118 -1.2671263 5.0100002
1.9396858 -1.2583625 5.0120001
1.9311864 -1.2403178 5.0140004
1.9331123 -1.2229894 5.0190001
1.9331123 -1.2137067 5.0190001
1.9508998 -0.8977387 5.0170002
1.9497333 -0.88792849 5.0140004
1.9508998 -0.87918079 5.0170002
1.9153099 -1.8642349 5.0210004
1.9168357 -1.8564264 5.0250001
1.9168357 -1.8471326 5.0250001
1.9164542 -1.8374732 5.0240002
1.9160728 -1.8278173 5.0230002
1.9160728 -1.8185272 5.0230002
1.9168357 -1.8053107 5.0250001
1.9168357 -1.7634889 5.0250001
1.9175986 -1.7548933 5.0270004
1.9175986 -1.7455958 5.0270004
1.9257462 -1.2334996 5.0240002
1.9334974 -1.2325176 5.0200005
1.9342678 -1.205144 5.0220003
1.9354233 -1.1965702 5.0250001
1.9276627 -1.1882216 5.0290003
1.945491 -1.0018001 5.0270004
1.945104 -0.90864474 5.026
1.9449105 -0.8946119 5.0255003
1.945491 -0.88093317 5.0270004
1.946265 -0.87198251 5.0290003
1.9520664 -0.87042201 5.0200005
1.9202689 -1.6921642 5.0340004
1.9217947 -1.684191 5.0380001
1.9214132 -1.6745408 5.0370002
1.9210317 -1.6648942 5.0360003
1.9388896 -1.1894029 5.0340004
1.947426 -0.99348974 5.0320001
1.9466521 -0.91867089 5.0300002
1.9400451 -0.89200151 5.0370002
1.9400451 -0.8826856 5.0370002
1.9314958 -0.87371641 5.039
1.9400451 -0.87336963 5.0370002
1.9450883 -0.86422527 5.0380001
1.947039 -0.84441477 5.0310001
1.9233205 -1.1819679 5.0420003
1.9326457 -1.1819679 5.0420003
1.9244649 -1.1733404 5.0450001
1.9341789 -1.173573 5.046
1.9244649 -1.1640097 5.0450001
1.9353288 -1.1555945 5.0490003
1.9337957 -1.1453482 5.0450001
1.9330291 -1.1355671 5.0430002
1.9334123 -1.1264634 5.0440001
1.9334123 -1.1171345 5.0440001
1.9326457 -1.1073663 5.0420003
1.9322624 -1.0978234 5.0410004
1.9322624 -1.0885 5.0410004
1.9438967 -1.0851275 5.0469999
1.9256092 -1.071339 5.0480003
1.9322624 -1.0791767 5.0410004
1.9435115 -0.92159313 5.046
1.9431264 -0.91207975 5.0450001
1.9412006 -0.90185428 5.0400004
1.9337957 -0.89341825 5.0450001
1.9326457 -0.88356179 5.0420003
1.9360955 -1.1653941 5.0510001
1.9372455 -1.0726124 5.0540004
1.9290425 -0.95166093 5.0570002
1.928661 -0.94212168 5.0560002
1.9282795 -0.90453839 5.0550003
1.9360955 -0.9038226 5.0510001
1.9144919 -1.6942199 5.0680003
1.9148697 -1.6851791 5.0690002
1.9227264 -1.0187405 5.0650001
1.9422284 -0.99102849 5.0670004
1.9332385 -0.9818508 5.0680003
1.9410785 -0.98107588 5.0640001
1.9410785 -0.95297825 5.0640001
1.9422284 -0.93479997 5.0670004
1.9410785 -0.92488062 5.0640001
1.9360113 -0.91533393 5.0630002
1.9156252 -1.6764652 5.0710001
1.9156252 -1.6670864 5.0710001
1.9182695 -1.1997989 5.0780001
1.9173251 -1.185127 5.0755005
1.9340014 -1.0666311 5.0700002
1.9359087 -1.0582968 5.0750003
1.9370531 -1.0495306 5.0780001
1.9366716 -1.0399339 5.0770001
1.9253837 -1.0107678 5.072
1.9257632 -1.0015845 5.0730004
1.925004 -0.99181086 5.0710001
1.9343829 -0.99181086 5.0710001
1.9347643 -0.97324508 5.072
1.9343829 -0.96367437 5.0710001
1.9343829 -0.93553787 5.0710001
1.9351457 -0.92652434 5.0730004
1.9116971 -1.7047715 5.0855002
1.912261 -1.6911632 5.0870004
1.9381975 -1.031356 5.0810003
1.937816 -1.0029666 5.0800004
1.9133887 -1.6827465 5.0900002
1.9145164 -1.6743188 5.0930004
1.9145164 -1.6648992 5.0930004
1.9145164 -1.6554798 5.0930004
1.9141406 -1.6457371 5.092
1.9262025 -1.223622 5.0990005
1.9228027 -1.2120482 5.0900002
1.9167719 -1.2047607 5.0990005
1.9148923 -1.194158 5.0940003
1.9145164 -1.184504 5.0930004
1.9092116 -1.6684952 5.1040001
1.9182756 -1.5643501 5.1030002
1.9040523 -1.7148283 5.1155005
1.9049827 -1.7014691 5.118
1.905355 -1.6923339 5.1190004
1.9239142 -1.474291 5.118
1.9227865 -1.2180012 5.1150002
1.9129522 -1.161013 5.1140003
1.9064716 -1.6838526 5.1220002
1.9068438 -1.6747062 5.1230001
1.9068438 -1.6652312 5.1230001
1.9155706 -1.1720735 5.1210003
1.9003317 -1.7247704 5.131
1.9025538 -1.7172865 5.1370001
1.9032946 -1.7084504 5.1390004
1.9025538 -1.6887838 5.1370001
1.9120548 -1.2992471 5.1370001
1.9113103 -1.2892441 5.1350002
1.9219297 -1.1949699 5.138
1.9193113 -1.1838521 5.131
1.9036649 -1.6992764 5.1400003
1.9044057 -1.6523869 5.1420002
1.904776 -1.6431963 5.1430001
1.904776 -1.3578366 5.1430001
1.9103315 -1.3045584 5.1580005
1.9095907 -1.2945166 5.1560001
1.919499 -1.1707752 5.1570001
1.9183824 -1.1605618 5.1540003
1.9198712 -1.0946844 5.1580005
1.9103315 -1.0756049 5.1580005
1.9033713 -1.3731977 5.1650004
1.9041084 -1.3355038 5.1670003
1.9048454 -1.3264607 5.1690001
1.9206157 -1.1809996 5.1600003
1.9110723 -1.0855653 5.1600003
1.9129241 -1.0675119 5.1650004
1.9059509 -1.317665 5.1720004
1.9055824 -1.3078464 5.1710005
1.905214 -1.2980316 5.1700001
1.9074249 -1.2899649 5.1760001
1.9074249 -1.0889314 5.1760001
1.906688 -1.0789413 5.1740003
1.9118471 -1.0722656 5.1880002
1.9029852 -1.3318497 5.1900001
1.9048185 -1.3043083 5.1950002
1.9062852 -1.0937703 5.1990004
1.9059186 -1.0358776 5.1980004
1.9033519 -1.0248818 5.1910005
1.9073852 -1.0847802 5.2020001
1.8984938 -1.0081989 5.2040005
1.8943135 -1.3392917 5.2190003
1.8943135 -1.3296391 5.2190003
1.9117851 -1.0776393 5.2140002
1.9103185 -1.0479048 5.21
1.9025067 -1.0392654 5.2150002
1.9028715 -1.0298177 5.2160001
1.9014122 -1.0193883 5.2120004
1.8950393 -1.3494611 5.2210002
1.89758 -1.3222628 5.2280002
1.9043307 -1.0981882 5.2200003
1.9065197 -1.0849495 5.2259998
1.897943 -1.0517263 5.2290001
1.9054252 -1.0505196 5.223
1.9139851 -1.0595706 5.2200003
1.8961282 -1.0410589 5.2240005
1.8961282 -1.0313971 5.2240005
1.9040499 -1.1056545 5.2325001
1.8997579 -1.0914532 5.2340002
1.9001209 -1.0819796 5.2350001
1.9051424 -1.0723999 5.2355003
1.9044147 -1.0623109 5.2335005
1.8926054 -1.3546305 5.2410002
1.8926054 -1.3449372 5.2410002
1.8929665 -1.3354988 5.2420001
1.9052024 -1.1819535 5.2490001
1.9019357 -1.1120872 5.2400002
1.8947721 -1.0456425 5.2470002
1.8940499 -1.0355432 5.2450004
1.9059283 -1.1726922 5.2510004
1.9070171 -1.1636449 5.2540002
1.9066542 -1.153708 5.2530003
1.9073801 -1.1444281 5.2550001
1.9059283 -1.1241335 5.2510004
1.8980221 -1.096041 5.256
1.8969388 -1.0856999 5.2530003
1.8980221 -1.076599 5.256
1.8972999 -1.0664721 5.2540002
1.8958554 -1.0559502 5.2500005
1.8810821 -1.4381882 5.2630005
1.9012722 -1.195294 5.2650003
1.9005499 -1.185106 5.2630005
1.9005499 -1.1753721 5.2630005
1.9005499 -1.1656382 5.2630005
1.9005499 -1.1559043 5.2630005
1.9005499 -1.1072346 5.2630005
1.8929716 -1.0402817 5.2690001
1.8904567 -1.0291675 5.2620001
1.8846562 -1.3629014 5.2730002
1.8842988 -1.3528924 5.2720003
1.8850136 -1.3436514 5.2740002
1.8965642 -1.2179995 5.2790003
1.8868008 -1.2082359 5.2790003
1.8951272 -1.2073205 5.2750001
1.8868008 -1.1984724 5.2790003
1.8951272 -1.1975642 5.2750001
1.8954865 -1.1880333 5.276
1.8954865 -1.1782753 5.276
1.8954865 -1.1685174 5.276
1.8965642 -1.1594183 5.2790003
1.9030777 -1.1476947 5.2700005
1.9034388 -1.1186664 5.2710004
1.8951272 -1.0902469 5.2750001
1.8962049 -1.0811052 5.2780004
1.8962049 -1.0713437 5.2780004
1.8954865 -1.0611796 5.276
1.8940494 -1.0506246 5.2720003
1.8868008 -1.042256 5.2790003
1.8802373 -1.3667785 5.2880001
1.8875155 -1.2184609 5.2810001
1.8885877 -1.1849465 5.2840004
1.8893026 -1.1707321 5.2860003
1.8994384 -1.1122837 5.2870002
1.8972827 -1.1012542 5.2810001
1.8893026 -1.0925204 5.2860003
1.8893026 -1.0827439 5.2860003
1.8893026 -1.0729675 5.2860003
1.8893026 -1.0631911 5.2860003
1.8882304 -1.0528166 5.2830005
1.8816595 -1.3776 5.2920003
1.8809484 -1.3575115 5.2900004
1.8820151 -1.348492 5.2930002
1.8830818 -1.3394613 5.2960005
1.8834374 -1.3299174 5.2970004
1.8910897 -1.2305539 5.2910004
1.8834374 -1.2221525 5.2970004
1.8820151 -1.2114402 5.2930002
1.8820151 -1.2016507 5.2930002
1.8841485 -1.1932124 5.2990003
1.8907323 -1.1618342 5.2900004
1.9005162 -1.1520504 5.2900004
1.893949 -1.1148083 5.2990003
1.8918046 -1.1037565 5.2930002
1.8827263 -1.0356219 5.2950001
1.8775315 -1.381765 5.3080001
1.8775315 -1.3523135 5.3080001
1.8877043 -1.2347403 5.309
1.8873487 -1.1854218 5.3080001
1.8950213 -1.1546637 5.302
1.8869931 -1.0674148 5.3070002
1.8855708 -1.0568024 5.3030005
1.8848597 -1.0465996 5.3010001
1.8789463 -1.343508 5.3120003
1.8789463 -1.3336835 5.3120003
1.8810687 -1.3253542 5.3180003
1.8796538 -1.2162466 5.3140001
1.8793001 -1.2061913 5.3130002
1.8880597 -1.1760477 5.3100004
1.8905487 -1.1677642 5.3170004
1.8901932 -1.1085528 5.3160005
1.8891264 -1.0981008 5.3130002
1.8891264 -1.0882744 5.3130002
1.8884153 -1.078042 5.3110003
1.8803612 -1.0397291 5.3160005
1.8807149 -1.0202571 5.3170004
1.8726405 -1.3952525 5.322
1.8733442 -1.3465431 5.3240004
1.8736961 -1.3369474 5.3250003
1.8747517 -1.3278464 5.3280001
1.8828372 -1.2281513 5.3230004
1.8838984 -1.1894417 5.3260002
1.8926822 -1.159237 5.3230004
1.8933933 -1.149824 5.3250003
1.891971 -1.1194366 5.3210001
1.8838984 -1.0613859 5.3260002
1.8828372 -1.0509431 5.3230004
1.8761592 -1.3189818 5.3320003
1.8775666 -1.305166 5.3360004
1.8772148 -1.2309201 5.335
1.8761592 -1.1907817 5.3320003
1.8884968 -1.1824704 5.3390002
1.8884968 -1.133098 5.3390002
1.895171 -1.1311879 5.3300004
1.876511 -1.1219612 5.3330002
1.8863744 -1.1219612 5.3330002
1.8775666 -1.1127235 5.3360004
1.8860207 -1.1118894 5.3320003
1.8877892 -1.1030612 5.3370004
1.8884968 -1.0837256 5.3390002
1.8860207 -1.0724431 5.3320003
1.8786222 -1.0639765 5.3390002
1.8768629 -1.0531149 5.3340001
1.8694477 -1.4002336 5.3410001
1.8701478 -1.3513485 5.3430004
1.8708478 -1.3419688 5.3450003
1.8711978 -1.3323324 5.3460002
1.8715478 -1.3226924 5.3470001
1.8722479 -1.3132941 5.3490005
1.8899115 -1.1635926 5.3430004
1.8895578 -1.1534948 5.3420005
1.8895578 -1.1436148 5.3420005
1.879326 -1.1335225 5.3410001
1.8810853 -1.1049213 5.3460002
1.8892041 -1.0940098 5.3410001
1.8810853 -1.075259 5.3460002
1.8789741 -1.0246705 5.3400002
1.8736479 -1.3043758 5.3530002
1.8824928 -1.2442758 5.3500004
1.8725979 -1.2244861 5.3500004
1.873998 -1.1857927 5.3540001
1.8839003 -1.1857927 5.3540001
1.8856596 -1.1769886 5.3590002
1.8835484 -1.1657704 5.3530002
1.884604 -1.1565179 5.3560004
1.8835484 -1.1459696 5.3530002
1.8725979 -1.1255378 5.3500004
1.8725979 -1.1156429 5.3500004
1.8736479 -1.1063681 5.3530002
1.8831965 -1.0962629 5.3520002
1.8824928 -1.0859584 5.3500004
1.8729479 -1.066368 5.3510003
1.875048 -1.0378404 5.3570004
1.873998 -1.0075524 5.3540001
1.8665329 -1.405477 5.3610001
1.8668811 -1.3462369 5.3620005
1.8672293 -1.3365692 5.3630004
1.8675774 -1.3268976 5.3640003
1.8682737 -1.3174679 5.3660002
1.8764482 -1.29641 5.3610001
1.8781983 -1.2380725 5.3660002
1.8689702 -1.2186778 5.368
1.8771482 -1.1381916 5.3630004
1.8767982 -1.0983112 5.3620005
1.8785483 -1.0894091 5.3670001
1.8774981 -1.0788794 5.3640003
1.8776731 -1.0244076 5.3645
1.8717555 -1.3099803 5.3760004
1.8728 -1.2311234 5.3790002
1.8820484 -1.1511075 5.3770003
1.8714073 -1.1208562 5.3750005
1.8696665 -1.0999498 5.3700004
1.8717555 -1.0912359 5.3760004
1.8717555 -1.081293 5.3760004
1.8659683 -1.3129044 5.3880005
1.8645831 -1.2223102 5.3840003
1.8837985 -1.172086 5.3820004
1.8841485 -1.1623479 5.3830004
1.8734963 -1.1320596 5.381
1.8741927 -1.0428774 5.3830004
1.8762816 -1.0241059 5.3890004
1.8687389 -1.3048738 5.3960004
1.8687389 -1.2948939 5.3960004
1.8677 -1.2841996 5.3930001
1.8677 -1.2742252 5.3930001
1.8680463 -1.2345567 5.3940001
1.8666611 -1.183797 5.3900003
1.8780226 -1.1846756 5.3940001
1.8773261 -1.1443462 5.3920002
1.8697779 -1.1358464 5.3990002
1.8670074 -1.1241927 5.3910003
1.8780226 -1.0350323 5.3940001
1.8604814 -1.3260612 5.401
1.8625482 -1.2875333 5.4070001
1.8608259 -1.2763517 5.4020004
1.8701242 -1.2658918 5.4000001
1.8704705 -1.2561371 5.401
1.8704705 -1.2461479 5.401
1.8618592 -1.2170812 5.4050002
1.8725485 -1.1775305 5.4070001
1.8732411 -1.1579581 5.4090004
1.8801116 -1.1560314 5.4000001
1.8708168 -1.1464685 5.4020004
1.8632371 -1.1179423 5.4090004
1.8711631 -1.0367593 5.4030004
1.8659929 -1.2999333 5.4170003
1.8639261 -1.2684705 5.4110003
1.865304 -1.2593931 5.4150004
1.865304 -1.1792727 5.4150004
1.8746264 -1.1688257 5.4130001
1.8659929 -1.149652 5.4170003
1.8649595 -1.1390021 5.414
1.8649595 -1.1289889 5.414
1.8576872 -1.3412452 5.4220004
1.8600856 -1.3329358 5.4290004
1.8600856 -1.2927721 5.4290004
1.8573446 -1.2808409 5.4210005
1.8590577 -1.2719868 5.4260001
1.8673707 -1.2507625 5.4210005
1.8680598 -1.241194 5.4230003
1.8680598 -1.2311642 5.4230003
1.8583724 -1.2113278 5.4240003
1.8680598 -1.1709851 5.4230003
1.8680598 -1.1609552 5.4230003
1.8631692 -1.3049728 5.4380002
1.8607708 -1.2631143 5.4310002
1.8628266 -1.2242868 5.4370003
1.861456 -1.1932411 5.4330001
1.862484 -1.1737921 5.4360003
1.8635118 -1.1342021 5.4390001
1.8617986 -1.1231093 5.4340005
1.8541338 -1.396261 5.4410005
1.8541338 -1.3861978 5.4410005
1.8548155 -1.3766404 5.4430003
1.8551562 -1.3668247 5.4440002
1.8548155 -1.3565068 5.4430003
1.8558377 -1.347182 5.4460001
1.8565192 -1.2872202 5.4480004
1.855497 -1.276441 5.4450002
1.85686 -1.2673007 5.4490004
1.8645396 -1.2556077 5.4420004
1.8662528 -1.2466871 5.447
1.8662528 -1.2366128 5.447
1.8638544 -1.1847172 5.4400001
1.864197 -1.1648086 5.4410005
1.8652248 -1.1553823 5.4440002
1.864197 -1.1446824 5.4410005
1.8575416 -1.3383373 5.4510002
1.8599269 -1.3097723 5.4580002
1.8589047 -1.2989632 5.4550004
1.8543676 -1.1277597 5.4565001
1.8508492 -1.3912932 5.4610004
1.8505102 -1.3809401 5.46
1.8505102 -1.3708419 5.46
1.8528827 -1.3018208 5.4670005
1.8505102 -1.2900556 5.46
1.8532217 -1.2616066 5.4680004
1.8618011 -1.2555135 5.4635
1.8609493 -1.2397912 5.4610004
1.8614604 -1.2249759 5.4625006
1.8623124 -1.2103767 5.4650002
1.8623123 -1.1749976 5.4650002
1.8464793 -1.4158874 5.4780002
1.8464793 -1.3550979 5.4780002
1.8538995 -1.3126519 5.4700003
1.855594 -1.2530956 5.4750004
1.8545773 -1.2422885 5.4720001
1.8538995 -1.2317177 5.4700003
1.855933 -1.2229408 5.4760003
1.8660609 -1.1520457 5.4760003
1.8640163 -1.1406666 5.4700003
1.8474904 -1.3659772 5.4810004
1.8478276 -1.3358095 5.4820004
1.8471534 -1.3251868 5.4800005
1.8474904 -1.2747431 5.4810004
1.8501871 -1.2664517 5.4890003
1.8501871 -1.235996 5.4890003
1.8576276 -1.2139204 5.4810004
1.8593222 -1.1845887 5.4860001
1.8583055 -1.1738 5.4830003
1.8596611 -1.1645081 5.4870005
1.8674239 -1.1630225 5.4800005
1.8589833 -1.1539391 5.4850001
1.8537378 -1.1436903 5.4845004
1.8518724 -1.2574443 5.4940004
1.8518724 -1.2472831 5.4940004
1.8515353 -1.2267374 5.493
1.8630503 -1.1971306 5.4970002
1.8525466 -1.1562533 5.4960003
1.8437226 -1.4114014 5.5000005
1.8457339 -1.3722076 5.506
1.8440578 -1.3607875 5.5010004
1.8452311 -1.2852956 5.5045004
1.8464043 -1.2402744 5.5080004
1.8457339 -1.2296406 5.506
1.8460691 -1.2196788 5.5070004
1.854232 -1.2183499 5.5010004
1.8552431 -1.1782957 5.5040002
1.854569 -1.1676916 5.5020003
1.8453987 -1.1581467 5.5050001
1.8388842 -1.4053055 5.5160003
1.8398844 -1.3856549 5.5190001
1.8494214 -1.272912 5.5170002
1.8490862 -1.2624795 5.5160003
1.8480805 -1.2515966 5.5130005
1.84741 -1.2103721 5.5110002
1.8582767 -1.2108114 5.5130005
1.8477453 -1.2003973 5.5120001
1.8586138 -1.2008328 5.5140004
1.8484157 -1.1906346 5.5140004
1.8536787 -1.1856389 5.5145001
1.8500918 -1.1712995 5.5190001
1.8412179 -1.2845112 5.5230002
1.8432181 -1.2654549 5.5290003
1.8418846 -1.2543209 5.5250001
1.8432181 -1.1836478 5.5290003
1.8428848 -1.1732095 5.5280004
1.8438848 -1.2761422 5.5310001
1.8392912 -1.3005867 5.5480003
1.8379651 -1.2381271 5.5440001
1.8419434 -1.2921863 5.5560002
1.8419434 -1.2510829 5.5560002
1.8412803 -1.1889997 5.5540004
1.8406173 -1.1783031 5.552
1.8359532 -1.3158095 5.5690002
1.844264 -1.2835255 5.5630002
1.8439325 -1.2730078 5.5620003
1.844264 -1.2629479 5.5630002
1.8352939 -1.2226713 5.5670004
1.8356236 -1.2125928 5.5680003
1.8359532 -1.2025107 5.5690002
1.8389204 -1.3076193 5.5780001
1.8369423 -1.2340748 5.572
1.838261 -1.1937095 5.5760002
1.8369423 -1.1825477 5.572
1.8315543 -1.3097292 5.5870004
1.8354039 -1.2984657 5.5830002
1.8358948 -1.2471719 5.5845003
1.8277406 -1.2936773 5.6070004
1.8364716 -1.261441 5.6020002
1.8270886 -1.2413836 5.6050005
1.8277406 -1.2210863 5.6070004
1.8280666 -1.210932 5.6080003
1.8274146 -1.2001319 5.6060004
1.8296964 -1.2535367 5.6130004
1.8339341 -1.2668452 5.6260004
1.8238529 -1.2254418 5.6270003
1.8245012 -1.2154665 5.6290002
1.824177 -1.2048416 5.6280003
1.8264459 -1.2845011 5.6350002
1.8251494 -1.2575566 5.631
1.8198913 -1.2820181 5.6470003
1.8287147 -1.2704481 5.6420002
1.8123832 -1.3125968 5.6890001
1.8130203 -1.2920072 5.6910005
1.8168433 -1.3052793 5.7030001
1.810413 -1.3082547 5.7160001
1.8011646 -1.348878 5.7540002
1.8017907 -1.3387011 5.756
1.8033558 -1.3292091 5.7610002
1.773472 -2.7830284 5.8380003
1.7740796 -2.7731807 5.8400002
1.769619 -2.7939928 5.8610001
1.7717326 -2.7864769 5.8680005
1.7626802 -2.80019 5.8740001
1.7562897 -2.785557 5.8890004
1.7686818 -2.7988231 5.8940001
1.769282 -2.7888682 5.8960004
1.7441024 -2.8737738 5.9590001
1.7449805 -2.8641937 5.9620004
1.728267 -2.9917665 6.0190001
1.7367982 -2.9761775 6.0100002
1.7294154 -3.0048943 6.0230002
1.7414219 -3.0063908 6.0260005
1.741133 -2.9947488 6.0250001
1.7422889 -2.3834512 6.0290003
1.7276571 -1.9047062 6.1760001
1.729895 -1.9414854 6.1840005
1.7293354 -1.9294239 6.1820002
1.7296152 -1.8954296 6.1830001
1.7238586 -1.9606365 6.2450004
1.671981 -1.6901219 6.5390005
1.671214 -1.6772581 6.5360003
1.671981 -1.6659341 6.5390005
1.6621717 -1.8498851 6.5480003
1.6654717 -1.817154 6.5610003
1.6672486 -1.7219125 6.5680003
1.6652179 -1.7076825 6.5600004
1.6652179 -1.6955497 6.5600004
1.6659794 -1.6841868 6.5630002
1.6662332 -1.6723033 6.5640001
1.6556051 -1.8196467 6.5700002
1.668264 -1.8080456 6.5720005
1.6700408 -1.7734679 6.5790005
1.657873 -1.7247963 6.5790005
1.659385 -1.8116221 6.5850005
1.6702948 -1.7372283 6.5800004
1.6502078 -1.8149235 6.5970001
1.6624089 -1.77832 6.5970001
1.6507081 -1.7422446 6.5990005
