# .PCD v0.7 - Point Cloud Data file format
VERSION 0.7
FIELDS x y z
SIZE 4 4 4
TYPE F F F
COUNT 1 1 1
WIDTH 924
HEIGHT 1
VIEWPOINT 0 0 0 1 0 0 0
POINTS 924
DATA ascii
0.99489969 -0.2042985 2.0053337
0.94749773 -0.21778305 2.039
0.94650358 -0.2184239 2.0450001
0.9500972 -0.22394466 2.0610001
0.95417303 -0.23494783 2.0740001
1.0083815 -0.23743586 2.079
1.0117397 -0.23732166 2.0780001
0.99388039 -0.24290577 2.0929999
-0.99787813 -0.1755062 2.1690001
-0.98508716 -0.17136286 2.1673334
-0.974832 -0.1645311 2.1653335
-0.99630791 -0.1772774 2.1743333
-0.98993409 -0.17623445 2.1780002
-0.97783768 -0.17185043 2.1735001
-0.97425771 -0.16756028 2.1700001
-1.0153439 -0.18488318 2.1849999
-1.0058749 -0.18462934 2.1820002
-0.99467528 -0.18075925 2.184
-0.98705024 -0.17680085 2.1849999
-1.0265459 -0.19393696 2.1960001
-1.0154386 -0.1900772 2.1983335
-1.0251423 -0.18961607 2.1930001
-1.003062 -0.18560241 2.1935
-0.99473381 -0.18390919 2.1975002
-0.98682874 -0.17785276 2.1980002
-1.0232399 -0.19446684 2.2020001
-1.0150514 -0.19484954 2.2063334
-1.0083205 -0.19065362 2.2050002
-0.99722248 -0.18640625 2.2030001
-0.98952258 -0.18241456 2.204
-1.0263036 -0.19953124 2.2130001
-1.0156326 -0.19779757 2.2165
-1.0056874 -0.19294332 2.2156668
-0.99430722 -0.18602602 2.2146671
-1.0320039 -0.20722334 2.2223337
-1.0254743 -0.20591909 2.2267501
-1.0152556 -0.20058315 2.2246666
-1.0038353 -0.19501044 2.2236669
-0.99745172 -0.19455087 2.2262502
-1.004562 -0.21208543 2.2375002
-1.0241089 -0.20935974 2.2305002
-1.0151213 -0.2078125 2.2316003
-1.0055918 -0.20483574 2.23175
-0.99524564 -0.20359822 2.2351668
-0.98867226 -0.20187548 2.2390001
-0.99288285 -0.19527066 2.2344999
-0.44363502 -0.25246677 2.2470002
-1.0046942 -0.21738586 2.2452002
-0.99509239 -0.21360819 2.2441428
-0.98848867 -0.21100232 2.2480001
-0.95022339 -0.2108146 2.2460001
-0.94649065 -0.21090846 2.2470002
-0.98694599 -0.2044456 2.2445002
-0.95565218 -0.20693664 2.2490001
-0.94761848 -0.20446953 2.24475
-0.44084829 -0.25325328 2.2540002
-1.0041556 -0.22372389 2.2505002
-0.98397058 -0.22434008 2.2567143
-0.9761799 -0.22864564 2.2580001
-0.93630058 -0.2202445 2.2575002
-0.92983127 -0.22019573 2.2570002
-0.99210835 -0.21965915 2.2515001
-0.98640603 -0.21507077 2.2543335
-0.96606171 -0.21410035 2.25875
-0.9556796 -0.21418762 2.2523334
-0.94568837 -0.21478824 2.2550001
-0.93512052 -0.21456492 2.2563336
-0.92818338 -0.21563856 2.253
-0.98446721 -0.20606661 2.2546666
-0.45177653 -0.26309955 2.2670002
-0.51931942 -0.25493863 2.2690001
-0.45097938 -0.25844991 2.263
-0.43900433 -0.25460157 2.266
-0.9750635 -0.2226032 2.2602501
-0.96592689 -0.22500212 2.2633333
-0.95511186 -0.22282596 2.2625
-0.9456954 -0.22329418 2.263
-0.9339838 -0.22486711 2.2620001
-0.98165989 -0.21431246 2.2610002
-0.97571099 -0.21438378 2.2617502
-0.94193256 -0.21222253 2.2610002
-0.45737728 -0.26391196 2.2740002
-0.44113541 -0.26004881 2.2770002
-0.68238312 -0.25550044 2.2740002
-0.45777956 -0.2599346 2.276
-0.96448827 -0.23665318 2.27475
-0.95512825 -0.23142037 2.2750001
-0.94269592 -0.23067085 2.2780001
-0.9351247 -0.234749 2.2766666
-0.92760676 -0.23636547 2.2720001
-0.96080023 -0.22996202 2.2710001
1.0644709 -0.3651543 2.2846668
0.51174343 -0.3239283 2.2820001
-0.46391737 -0.26313168 2.2855
-0.44268531 -0.26518857 2.2850001
-0.67786109 -0.25617456 2.2800002
-0.60010016 -0.25295228 2.289
-0.59560633 -0.25284177 2.2880001
-0.57243943 -0.25617456 2.2800002
-0.56710917 -0.25662398 2.2839999
-0.49518597 -0.25656781 2.2835002
-0.48960069 -0.25696105 2.2870002
-0.95741332 -0.2422626 2.2880001
-0.94724804 -0.24025173 2.289
-0.93523341 -0.24411142 2.2855
-0.59586662 -0.24871875 2.289
-0.96039104 -0.23930711 2.2800002
-0.95630258 -0.23687638 2.2836668
-0.944327 -0.23555699 2.2845001
1.0658172 -0.36423758 2.2966669
-0.41373411 -0.27782896 2.2963336
-0.60644579 -0.25383633 2.2970002
-0.4733015 -0.25729814 2.2900002
-0.95405769 -0.24638323 2.2934999
-0.94507253 -0.24714297 2.2940001
-0.93658888 -0.24926205 2.2940001
-0.6003623 -0.24882741 2.2900002
-0.9518972 -0.23612133 2.2900002
1.0623479 -0.37613583 2.3045001
1.0815043 -0.37473643 2.309
0.75039393 -0.33528239 2.302
-0.42079875 -0.28017741 2.3040001
-0.55788434 -0.2720086 2.3070002
-0.42061612 -0.27579638 2.3030002
-0.41209731 -0.27579638 2.3030002
-0.40872335 -0.27639517 2.3080001
-0.58399099 -0.26797393 2.309
-0.57445312 -0.2632466 2.3050001
-0.50132704 -0.26290396 2.302
-0.49579978 -0.2633608 2.3060002
-0.60590017 -0.25449938 2.3030002
-0.59763986 -0.25887114 2.3040001
-1.6442477 -0.20477749 2.3026669
-1.6377382 -0.20538284 2.3015001
1.0662663 -0.37110773 2.3130002
1.0833778 -0.37966353 2.3130002
1.0900069 -0.37619707 2.3180001
-0.58569044 -0.26612744 2.3115001
-0.57808459 -0.26606986 2.3110001
-0.50328702 -0.26820603 2.3110001
-0.49409637 -0.2673696 2.3130002
1.0914177 -0.38097665 2.3210001
1.0702529 -0.3783069 2.3310001
-0.34932336 -0.3060635 2.3390002
-0.48322225 -0.29728436 2.3380001
-0.4740642 -0.29588592 2.3355
-0.46557695 -0.29490119 2.3362503
-0.45708182 -0.29715723 2.3370001
-0.43519089 -0.2948072 2.3355002
-0.56129664 -0.28443357 2.3390002
-0.50406486 -0.28609103 2.3384004
-0.47457397 -0.28863609 2.3380001
-0.45747301 -0.28443357 2.3390002
-0.44016907 -0.28443357 2.3390002
-1.6486208 -0.22780551 2.335
-0.49271202 -0.30212453 2.342
-0.41492149 -0.30225351 2.3430002
-0.35410294 -0.30645606 2.342
-0.54631847 -0.29868305 2.3490002
-0.51718479 -0.2948623 2.3416669
-0.49561507 -0.29823804 2.3455
-0.48518848 -0.29632285 2.3475003
-0.46219385 -0.29333615 2.3410001
-0.45864651 -0.29383737 2.345
-0.44158047 -0.29619384 2.3464999
-0.4243114 -0.29626021 2.3470001
-0.55646622 -0.28528112 2.3460002
-0.54995966 -0.28094587 2.3460002
-0.51686764 -0.28498048 2.3435001
-0.50960261 -0.288883 2.3400002
-0.49768025 -0.28516319 2.345
-0.45601466 -0.28532779 2.3463335
-0.44553748 -0.28402323 2.3445001
-0.6147815 -0.27648902 2.345
-0.60801458 -0.27637112 2.3440001
-1.6535633 -0.2241569 2.342
-1.6535109 -0.21793658 2.3450003
-1.6491143 -0.2160459 2.348
1.0874717 -0.39594007 2.3590002
-0.3863934 -0.31238002 2.3540001
-0.35449177 -0.3130435 2.3590002
-0.57615072 -0.30386606 2.3555002
-0.54507101 -0.30354357 2.3530002
-0.53523815 -0.30675253 2.3576
-0.60791659 -0.29906452 2.352
-0.59126973 -0.29726726 2.355
-0.58512753 -0.29637209 2.3536668
-0.57336003 -0.29919168 2.3530002
-0.55524367 -0.29011756 2.3500001
-0.54335833 -0.29944599 2.355
-0.53074193 -0.29970029 2.3570001
-0.52571267 -0.29496202 2.3540001
-0.48476565 -0.29303885 2.3559999
-0.45382729 -0.29275551 2.3537502
-0.44753563 -0.29291168 2.355
-0.42131269 -0.29720739 2.3545001
-0.41431871 -0.29811883 2.3560002
-0.40807533 -0.29707563 2.3535001
-0.55709451 -0.28507984 2.35325
-0.54724878 -0.283961 2.3530002
-0.52548933 -0.283961 2.3530002
-1.6388736 -0.23598909 2.352
-1.6235416 -0.23411231 2.355
-1.6544493 -0.22298779 2.3525
-1.6510761 -0.21687402 2.3570001
1.0888547 -0.40081212 2.3620002
1.0966624 -0.40483755 2.3600001
-0.59739566 -0.30251849 2.362
-0.58266836 -0.30170622 2.3613334
-0.54014713 -0.30008173 2.3600001
-0.53578234 -0.30226415 2.3600001
-0.59352934 -0.29184592 2.3640001
-0.58356488 -0.29287815 2.3635001
-0.57498735 -0.29350844 2.3656669
-0.55175692 -0.29172248 2.3630002
-0.54560649 -0.29521722 2.3647501
-0.53392571 -0.29484177 2.3646667
-0.49525765 -0.29409236 2.3645
-0.41810912 -0.29584223 2.3610001
-0.58585757 -0.28582171 2.3648
-0.57361162 -0.28735209 2.3630002
-1.6259128 -0.23778866 2.3626668
-0.68299019 -0.30367392 2.3710003
-0.65586585 -0.30211622 2.3759999
-0.64515173 -0.30444056 2.3770001
-0.63063401 -0.3059946 2.3720002
-0.60017782 -0.29295701 2.3730001
-0.59941906 -0.29696995 2.3700001
-0.54266477 -0.2927101 2.3710001
-0.53805256 -0.29258662 2.3700001
-0.5974803 -0.28832492 2.3710003
-1.6528096 -0.22483382 2.3720002
-0.67542851 -0.31182098 2.3830001
-0.68318439 -0.30572224 2.3870001
-0.64264286 -0.30313343 2.3840001
-0.63562655 -0.30514359 2.3825002
-0.6228506 -0.29615447 2.3870001
-0.61372495 -0.29639429 2.3830001
-0.60673225 -0.29621005 2.3815002
-1.6347158 -0.24361089 2.3840003
-0.64077693 -0.30212659 2.3935003
-1.644065 -0.25562835 2.3933334
-1.6354356 -0.24437588 2.3915
1.4993892 -0.44925937 2.411
0.023556186 -0.36680347 2.4260001
-1.6526372 -0.26814708 2.4265003
-1.6481485 -0.26365927 2.4265001
-1.6520952 -0.25494602 2.4290001
-1.6481485 -0.25917143 2.4265001
-1.6561717 -0.27584201 2.4350002
-1.6509943 -0.26897588 2.434
-1.6526845 -0.27035725 2.4465003
-1.6524237 -0.26416335 2.4449999
-0.72035295 -0.34133998 2.4690001
-1.6238463 -0.28186229 2.4680002
-0.72151995 -0.34646681 2.473
-0.71680117 -0.34411168 2.4725003
-1.6341262 -0.2859081 2.4766667
-1.6297306 -0.28209072 2.47
1.371953 -0.48563722 2.4830003
-1.6366765 -0.29559046 2.4875002
-1.641577 -0.28793558 2.4810002
-1.6291234 -0.28816772 2.483
1.3727621 -0.49299362 2.4970002
1.3639199 -0.48769087 2.4935002
1.3711128 -0.48778865 2.4940002
-1.651502 -0.29429281 2.4960001
-1.6475455 -0.29441071 2.4970002
-1.6297653 -0.28909618 2.4910002
1.3499008 -0.49477053 2.506
1.3544952 -0.49447009 2.5045002
1.3625356 -0.4943049 2.5036669
-1.6601036 -0.31438717 2.5090001
-1.6521641 -0.31376067 2.5040002
-1.6481909 -0.31388596 2.5050001
-1.6541488 -0.29980731 2.5035
1.3517078 -0.50179678 2.5180001
1.3495605 -0.49170035 2.5140002
1.3506342 -0.49674487 2.516
1.36134 -0.49091801 2.5100002
-1.6647352 -0.31061095 2.516
-1.6640735 -0.30583602 2.5150001
-1.6545755 -0.30832282 2.5100002
1.3461231 -0.50319177 2.5249999
1.3486557 -0.49306944 2.5210001
1.3507955 -0.49852178 2.5250001
-0.54586947 -0.39391533 2.5280001
-1.4009392 -0.33533743 2.5270002
-1.3951604 -0.33507201 2.5250001
1.3404915 -0.50458676 2.5320001
-0.54172915 -0.39430439 2.5305002
-1.4042655 -0.34081841 2.5330002
-1.3988905 -0.34122205 2.5360003
-1.3850957 -0.34128934 2.5365
-1.3788733 -0.34618521 2.5380001
-1.3931015 -0.33626634 2.5339999
-1.383184 -0.33613363 2.5330002
-1.4150677 -0.34700361 2.5440001
-1.4046848 -0.34734464 2.5465002
-1.3950453 -0.34552801 2.544667
-1.3862931 -0.3468672 2.5430002
-1.6741278 -0.32398656 2.5480001
-1.6677123 -0.32411373 2.549
-1.3995415 -0.35253826 2.5500002
-1.6817468 -0.33682209 2.5560002
-1.6752673 -0.3293871 2.5533335
-1.6816124 -0.33537441 2.5630002
-1.6788348 -0.33576697 2.5660002
-0.74353456 -0.40690112 2.5756667
-1.685654 -0.34316191 2.5740001
-1.6871372 -0.35273245 2.5860002
-1.6890944 -0.34595913 2.5890002
-1.6855061 -0.33566731 2.5835001
-1.6874325 -0.35430104 2.5975003
-1.6908118 -0.34729537 2.5990002
-1.6860049 -0.34008509 2.5990002
-0.76346505 -0.41851902 2.6085
-0.75405455 -0.41731569 2.6010001
-0.73395443 -0.41819811 2.6065001
-1.6837854 -0.35023701 2.6030002
-1.6768856 -0.35030431 2.6035001
-1.6867775 -0.34698203 2.6026669
-1.6796162 -0.34555545 2.6040001
-0.81255525 -0.42504752 2.6190002
-0.7359283 -0.42415494 2.6135001
-0.72797936 -0.41892013 2.6110001
-1.7131057 -0.36580056 2.6110001
-1.6963806 -0.36152449 2.615
-1.6868696 -0.36207753 2.6190002
-1.6858501 -0.3565062 2.6136668
-1.6770386 -0.35668808 2.615
-0.80713248 -0.42602128 2.625
-1.714678 -0.36769193 2.6245003
-1.7072477 -0.36818227 2.628
-1.6962359 -0.36790207 2.6260002
-1.6865213 -0.36547369 2.6260002
-1.6766783 -0.35764289 2.6220002
-0.80198485 -0.42715734 2.6320002
-0.7977227 -0.42748192 2.6340001
-1.7147152 -0.37361056 2.632
-1.7064372 -0.37537575 2.6330001
-1.6864027 -0.36749363 2.6346667
-1.7083663 -0.37977263 2.641
-1.6858565 -0.37042385 2.6440001
-1.6868129 -0.3632952 2.6455002
-1.7148349 -0.38611364 2.651
-0.75204551 -0.44187292 2.6620002
-0.62661803 -0.44441712 2.6625001
-0.9845525 -0.43497935 2.665
-0.62492877 -0.45347714 2.687
-0.62145889 -0.45457458 2.6935
-0.56473953 -0.7121911 3.1890001
-0.55510843 -0.71118605 3.1845002
-0.56597912 -0.71966535 3.1960001
-0.58015144 -0.72259265 3.2090001
-0.57376897 -0.72499633 3.2065001
-0.56686461 -0.72671151 3.2010002
1.8278069 -0.89382535 3.2165003
1.8345021 -0.89223272 3.2143335
1.844506 -0.89326775 3.2145002
-0.62363416 -0.74270511 3.2190001
-0.61451375 -0.74247438 3.2180002
-0.62314981 -0.73320532 3.2165003
-0.61394 -0.73583603 3.2150002
-0.60549116 -0.73343241 3.2175002
-0.58773023 -0.73057097 3.2180002
-0.62285918 -0.72394371 3.2150002
-0.61365306 -0.72657859 3.2135
-0.60558528 -0.72461927 3.2180002
-0.58411974 -0.72680235 3.2145
-0.63404059 -0.74443555 3.2265
-0.63046777 -0.7348001 3.2235003
-0.60019261 -0.73125207 3.2210002
-0.59423536 -0.73125207 3.2210002
-0.66583097 -0.74662745 3.2360001
-0.65355742 -0.74628139 3.2345002
-0.64438438 -0.74305809 3.2335
-0.63840401 -0.73707867 3.2335
1.7852663 -0.88737917 3.2473335
-0.68289638 -0.75493819 3.2460001
-0.67605871 -0.75400788 3.2420001
-0.68310672 -0.74916542 3.2470002
-0.67461556 -0.74462599 3.2446671
-0.66386175 -0.74178684 3.2410002
-0.65487039 -0.74178684 3.2410002
-0.67751843 -0.73760879 3.2490001
1.7374349 -0.89056724 3.2590001
1.7434624 -0.89056724 3.2590001
-0.72157496 -0.75772905 3.2580001
-0.71554929 -0.75772905 3.2580001
-0.69303131 -0.75525719 3.2559998
-0.69102216 -0.74521995 3.256
-0.68373787 -0.74384671 3.2500002
1.7533108 -0.89097714 3.2605002
1.7620856 -0.89084053 3.2600002
-0.76586455 -0.75982225 3.2670002
-0.75958967 -0.75958967 3.2660003
-0.73587811 -0.7570318 3.2680001
-0.72648424 -0.7546379 3.2620003
-0.71308279 -0.75228024 3.2605002
-0.70608354 -0.75633889 3.2606668
-0.69790041 -0.75216484 3.2600002
-0.72484416 -0.74496365 3.2636669
-0.71609843 -0.74323523 3.2605002
-0.70694447 -0.74613547 3.2600002
-0.69790041 -0.74613547 3.2600002
-0.78044951 -0.76529562 3.2775002
-0.7456854 -0.76383555 3.27125
-0.78663123 -0.75328743 3.2780001
-0.77581614 -0.75360543 3.2750003
-0.7645942 -0.75551033 3.2745001
-0.75317025 -0.75317025 3.2775002
-0.74575758 -0.7538349 3.276
-0.78615129 -0.74373847 3.2760003
-0.7780714 -0.74575752 3.2760003
-0.73734176 -0.74642467 3.2745004
-0.83185202 -0.76493889 3.2890003
-0.82576901 -0.76493889 3.2890003
-0.81664449 -0.76493889 3.2890003
-0.80386746 -0.76435745 3.2865002
-0.79438663 -0.76400858 3.2850001
-0.78747112 -0.76622963 3.2815001
-0.8252669 -0.75839442 3.2870002
-0.81943679 -0.75862515 3.2880001
-0.80143696 -0.75885588 3.2890003
-0.79414481 -0.75466537 3.2840002
-0.76622868 -0.75105631 3.2815001
-0.75701004 -0.75094187 3.2810001
2.2482238 -0.94349289 3.2965002
-0.83818978 -0.76517147 3.2900002
-0.81385034 -0.75908661 3.2900002
-0.80622762 -0.7554884 3.2920001
2.2462096 -0.95742607 3.3025002
2.2455282 -0.95362258 3.3105001
2.2543721 -0.95347852 3.3100002
-1.4316937 -0.78481549 3.4290001
-1.4252919 -0.80559945 3.4365001
-1.4337813 -0.79231107 3.4340003
-1.4249806 -0.79589272 3.4357502
-1.4234241 -0.78550208 3.4320002
-1.4362864 -0.80323887 3.4400001
-1.4178176 -0.80358958 3.4415002
-1.4188476 -0.79461831 3.4440002
-1.2458992 -0.83006632 3.4590001
-1.2549522 -0.82331169 3.4575
-1.2440982 -0.82247829 3.4540002
-1.4153488 -0.81538129 3.4510002
-1.4074013 -0.81632638 3.4550002
-1.413076 -0.80633247 3.4532502
-1.4135892 -0.79704094 3.4545002
-1.2642654 -0.83162618 3.4655004
-1.2537447 -0.8310262 3.4630001
-1.3926511 -0.82533574 3.4660001
-1.2680174 -0.82557386 3.4670002
-1.4042702 -0.81457239 3.4656668
-1.3958591 -0.81892538 3.4660001
-1.4086798 -0.80610466 3.4660001
-1.2841668 -0.83414584 3.4760001
-1.2762675 -0.83318597 3.4720001
-1.3914531 -0.82010674 3.4710002
-1.3838139 -0.82450211 3.4760001
-1.3753569 -0.82521415 3.4790001
-1.3657054 -0.82521415 3.4790001
-1.3560537 -0.82843137 3.4790001
-1.2845362 -0.82795513 3.4770002
-1.2770027 -0.82724077 3.4740002
-1.2698461 -0.82034302 3.4720001
-1.3956652 -0.81427324 3.4735003
-1.3624882 -0.81556255 3.4790001
-1.3660979 -0.83510578 3.4800003
-1.3534193 -0.83522576 3.4805002
-1.3443431 -0.83558571 3.4820001
-1.3352576 -0.83594567 3.4835002
-1.3257842 -0.83606565 3.4840002
-1.3156729 -0.83431584 3.485667
-1.3047277 -0.83702552 3.4880002
-1.293566 -0.83606565 3.4840002
-1.3524113 -0.82453614 3.4806669
-1.3441501 -0.82580668 3.4815001
-1.3354493 -0.82639968 3.4840002
-1.3265452 -0.82687271 3.4860001
-1.3197193 -0.82986009 3.4850001
-1.2939372 -0.82986009 3.4850001
-1.2874917 -0.82341456 3.4850001
-1.2799435 -0.82270575 3.4820001
-1.3852614 -0.81419545 3.4823334
-1.369316 -0.81579697 3.4800003
-1.3568332 -0.8160314 3.4810002
-1.3054758 -0.83105075 3.4900002
-1.3216127 -0.82459599 3.4900002
-1.3143725 -0.82613176 3.4965
-1.3052335 -0.82648617 3.4980001
-1.2972788 -0.82554108 3.4940002
1.6458639 -1.0641915 3.5943336
1.6356471 -1.0654215 3.6060002
1.6400392 -1.0639442 3.6010001
1.5606844 -1.1196586 3.6970003
1.562373 -1.114025 3.7010002
1.572186 -1.1092741 3.7080002
1.559731 -1.1238986 3.7110002
1.5493368 -1.116004 3.7190001
1.559731 -1.1170352 3.7110002
1.5445323 -1.1278358 3.7240002
1.5538193 -1.1270785 3.7215002
1.5430806 -1.1164536 3.7205002
1.557052 -1.1166033 3.7210002
-0.40506065 -1.0524466 3.8255
-0.3944979 -1.0525841 3.8260002
-1.4145784 -1.0038372 3.8290002
-1.420175 -0.99571425 3.8250003
-1.4131006 -0.99571425 3.8250003
-1.4067615 -0.99623483 3.8270001
-0.44542396 -1.0629839 3.8380003
-0.43483254 -1.0631223 3.8385003
-0.42423931 -1.0632608 3.8390002
-0.41713905 -1.0632608 3.8390002
-0.40627694 -1.0627069 3.8370001
-0.39583835 -1.0632608 3.8390002
-0.45264024 -1.0561606 3.8390002
-0.44472763 -1.0542347 3.8320003
-0.43432233 -1.054785 3.8340001
-0.42379725 -1.0550601 3.8350003
-0.4164871 -1.0545099 3.8330002
-1.4224027 -1.0043616 3.8310001
-1.4078642 -1.0040994 3.8300002
-0.35415703 -1.0802679 3.8490002
-0.44646847 -1.0725915 3.8470001
-0.43438473 -1.0744044 3.845
-0.42473659 -1.0751705 3.8435001
-0.41552797 -1.0746838 3.846
-0.40398818 -1.0731492 3.8490002
-0.36108804 -1.0797065 3.8470001
-0.31856334 -1.0731492 3.8490002
-0.48216894 -1.0657535 3.8480003
-0.45334768 -1.0649226 3.8450003
-0.38593912 -1.065338 3.8465004
-0.37541568 -1.0657535 3.8480003
-0.49608022 -1.0543941 3.8455
-0.48522338 -1.0575361 3.8440003
-0.47468171 -1.0578113 3.8450003
-0.47603968 -1.0822326 3.8560002
-0.46927282 -1.0830746 3.8590002
-0.45488045 -1.0827938 3.8580003
-0.40451297 -1.0816712 3.8540001
-0.39417818 -1.0826535 3.8575001
-0.38332784 -1.0822326 3.8560002
-0.3760986 -1.0819519 3.8550003
-0.36624432 -1.0856723 3.8513336
-0.34532103 -1.0870806 3.8563335
-0.333579 -1.0863615 3.8580003
-0.32610518 -1.085237 3.8540001
-0.3153511 -1.085026 3.8532503
-0.49055737 -1.0756584 3.8580003
-0.48279545 -1.0742644 3.8530002
-0.4757928 -1.0745432 3.8540001
-0.46558261 -1.0756586 3.8580003
-0.45440882 -1.0745432 3.8540001
-0.39376852 -1.0744038 3.8535004
-0.38312903 -1.0745432 3.8540001
-0.37590349 -1.0742644 3.8530002
-0.36502469 -1.0737069 3.8510001
-0.35461709 -1.0745432 3.8540001
-0.32593593 -1.0739856 3.8520002
-0.31193012 -1.0748221 3.8550003
-0.50443554 -1.0605624 3.8550003
-0.49730572 -1.0676923 3.8550003
-0.48979443 -1.0668614 3.8520002
-0.47529897 -1.0663074 3.8500001
-0.46485943 -1.0668614 3.8520002
-0.38382488 -1.0907768 3.8610003
-0.30535376 -1.0946317 3.8620002
-0.29490614 -1.0956218 3.8655
-0.28414595 -1.0954801 3.8650002
-0.27692598 -1.0951966 3.8640003
-0.26622325 -1.0952678 3.8642502
-0.25581715 -1.0930369 3.8690002
-0.4948318 -1.0843375 3.8635001
-0.46249485 -1.0839165 3.8620002
-0.340891 -1.0833552 3.8600001
-0.30519563 -1.0833552 3.8600001
-0.2950964 -1.0856005 3.868
-0.28421947 -1.0850391 3.8660002
-0.27699766 -1.0847585 3.8650002
-0.26634404 -1.0850391 3.8660002
-0.25575101 -1.0856005 3.8680003
-0.59198314 -1.0712928 3.8680003
-0.5845269 -1.0743158 3.8660002
-0.57380158 -1.0743139 3.8660002
-0.5057441 -1.0704619 3.8650002
-0.49833775 -1.0770526 3.8630002
-0.34463811 -1.0767738 3.8620002
-0.33375195 -1.0762161 3.8600001
-0.30519563 -1.0762161 3.8600001
-0.27699766 -1.0776101 3.8650002
-0.64563811 -1.0641389 3.868
-0.6350705 -1.064414 3.8690002
-0.59183007 -1.0638638 3.8670001
-0.58407331 -1.0627633 3.8630002
-0.57454586 -1.0651442 3.8630002
-0.541906 -1.0641389 3.8680003
-0.53461391 -1.0638638 3.8670001
-0.52718908 -1.0633135 3.8650002
-0.51613295 -1.0626258 3.8625002
-0.25594938 -1.1007613 3.8710003
-0.24930412 -1.1030362 3.8790002
-0.24565274 -1.0955795 3.8780003
-0.22778146 -1.095862 3.8790002
-0.63671196 -1.0815135 3.8790002
-0.62459391 -1.0836262 3.8780003
-0.61503071 -1.0848219 3.8780003
-0.60415596 -1.0846118 3.8772502
-0.52520603 -1.0844715 3.8767502
-0.5146839 -1.0849612 3.8785002
-0.5070526 -1.0875652 3.8750002
-0.24536723 -1.0871441 3.8735003
-0.65738618 -1.0729545 3.8740001
-0.64622188 -1.072262 3.8715003
-0.63556296 -1.0724006 3.8720002
-0.62498242 -1.0726776 3.8730001
-0.61423773 -1.0726776 3.8730001
-0.60723138 -1.0729545 3.8740001
-0.59617597 -1.0759811 3.8720002
-0.57081652 -1.0790043 3.8700001
-0.56467849 -1.0737854 3.8770001
-0.54330701 -1.0740623 3.8780003
-0.53585815 -1.0735085 3.8760002
-0.52463144 -1.0725391 3.8725002
-0.5138213 -1.0724006 3.8720002
-0.50679088 -1.0798407 3.8730001
-0.29167113 -1.0790043 3.8700001
-0.66540885 -1.0671651 3.8790002
-0.6568771 -1.0649642 3.8710003
-0.62457854 -1.0648266 3.8705001
-0.61376196 -1.064689 3.8700001
-0.6067611 -1.0649642 3.8710003
-0.59944683 -1.064689 3.8700001
-0.56380457 -1.0649642 3.8710003
-0.55678898 -1.0652393 3.8720002
-0.54948574 -1.0649642 3.8710003
-0.64954984 -1.0575315 3.8700001
-0.21381818 -1.112214 3.8860002
-0.20679054 -1.1130725 3.8890002
-0.19235563 -1.1127863 3.8880002
-0.18514095 -1.1162386 3.8875003
-0.17557697 -1.1175803 3.8880002
-0.24231717 -1.1038893 3.8820002
-0.23519796 -1.1041737 3.8830001
-0.22439617 -1.1040316 3.8825002
-0.21381818 -1.1050267 3.8860002
-0.20673737 -1.1055955 3.8880002
-0.19235563 -1.1055955 3.8880002
-0.18511714 -1.1053112 3.8870001
-0.17801967 -1.1058798 3.8890002
-0.23501626 -1.0961446 3.8800001
-0.22066411 -1.0961446 3.8800001
-0.21365312 -1.096992 3.8830001
-0.20663102 -1.0978396 3.8860002
-0.19585028 -1.0942465 3.8860002
-0.18514095 -1.0946679 3.8875003
-0.17801967 -1.0986872 3.8890002
-0.66678119 -1.083744 3.8870001
-0.65523863 -1.0824895 3.8825002
-0.64405215 -1.0817924 3.8800001
-0.56540668 -1.0859408 3.8820002
-0.55527866 -1.0836046 3.8865004
-0.54428768 -1.0831864 3.8850002
-0.53641117 -1.0853803 3.8800001
-0.66575193 -1.0748932 3.8810003
-0.55442226 -1.0747547 3.8805003
-0.14944071 -1.1217055 3.8940003
-0.19964914 -1.1133587 3.8900001
-0.17091481 -1.113645 3.8910003
-0.16376048 -1.1139312 3.8920002
-0.15660244 -1.1142174 3.8930001
-0.14587533 -1.1147897 3.895
-0.19964914 -1.1061642 3.8900001
-0.17095874 -1.106733 3.8920002
-0.1638867 -1.1039832 3.8950002
-0.15670301 -1.1041244 3.8955002
-0.1459329 -1.1044089 3.8965001
-0.68308687 -1.0868109 3.8980002
-0.67518389 -1.0856957 3.8940003
-0.68291163 -1.07572 3.8970003
-0.67475045 -1.0742023 3.8915002
-0.14245792 -1.1234339 3.9000001
-0.13541825 -1.1176519 3.9050002
-0.1282616 -1.1109983 3.9070003
-0.13531421 -1.1095765 3.9020002
-0.69189 -1.0857073 3.9070003
-0.69224417 -1.0754185 3.9090002
-0.13559164 -1.1263145 3.9100001
-0.12862271 -1.128619 3.9180002
-0.12490012 -1.11689 3.9150002
-0.71548575 -1.09587 3.9175003
-0.70407891 -1.0950309 3.9145002
-0.72263891 -1.0848639 3.9170003
-0.71502912 -1.0843101 3.9150002
-0.70389861 -1.0838945 3.9135003
-0.73006976 -1.0778946 3.9180002
-0.12885252 -1.1378947 3.9250002
-0.12156224 -1.1230899 3.9240003
-0.73491156 -1.0941995 3.9245
-0.72319239 -1.0929449 3.9200001
-0.73602796 -1.0843817 3.9240005
-0.12199594 -1.1416636 3.9380002
-0.12181007 -1.1326518 3.9320002
-0.11474174 -1.1346682 3.9390001
-0.11456695 -1.1256658 3.9330001
-0.10734742 -1.1262382 3.9350002
-0.76312357 -1.1055275 3.9390001
-0.75545466 -1.1049662 3.9370003
-0.74741298 -1.1038436 3.9330001
-0.75564653 -1.0979635 3.9380002
-0.74741298 -1.0965694 3.9330001
-0.74779308 -1.0862086 3.9350002
-0.10764751 -1.151281 3.9460001
-0.11488738 -1.1434029 3.9440002
-0.10762022 -1.1436929 3.9450002
-0.1039166 -1.1358205 3.9430003
-0.77138668 -1.1069309 3.9440002
-0.77168012 -1.0964046 3.9455004
-0.76360798 -1.095293 3.9415002
-0.75622219 -1.091511 3.9410002
-0.10045109 -1.1524479 3.9500003
-0.093310624 -1.1544904 3.9570003
-0.10045109 -1.1451424 3.9500003
-0.093310624 -1.1471719 3.9570003
-0.093228087 -1.1351914 3.9535003
-0.78480834 -1.1140974 3.9565001
-0.78411543 -1.1057994 3.9530001
-0.77986574 -1.1013093 3.9500003
-0.78411448 -1.0948346 3.9530001
-0.086057343 -1.1553656 3.9600003
-0.078872487 -1.1537385 3.967
-0.086079076 -1.1446685 3.9610002
-0.078912251 -1.1433101 3.9690001
-0.79769498 -1.1131054 3.9660001
-0.79729271 -1.1052126 3.9640002
-0.064263269 -1.1659193 3.9710002
-0.81461835 -1.1161927 3.9770002
-0.80645096 -1.11507 3.9730003
-0.81502801 -1.1093948 3.9790001
-0.80675542 -1.1044643 3.9745002
-0.83468449 -1.1258082 3.9850001
-0.83415192 -1.1169143 3.9883335
-0.82331729 -1.1143317 3.9835
-0.86328572 -1.1220865 3.9980001
-0.85524917 -1.1212445 3.9950001
-0.8473298 -1.1242363 3.9925003
-0.86328572 -1.1146922 3.9980001
-0.85524917 -1.1138558 3.9950001
-0.84701145 -1.1127405 3.9910002
-0.83941972 -1.1124617 3.9900002
-0.85803217 -1.132306 4.0080004
-0.87242222 -1.1243318 4.006
-0.8730756 -1.1177592 4.0090003
-0.86738837 -1.1348486 4.0170002
-0.86081523 -1.1434155 4.0210004
-0.87105918 -1.1471121 4.0340004
-0.88156897 -1.1548367 4.0480003
-0.88048005 -1.1421939 4.0430002
-0.8897146 -1.1369616 4.0510001
-1.814986 -1.2199086 4.2900004
-1.746006 -1.2825725 4.3960004
-1.7537373 -1.2741522 4.395
-1.7471975 -1.2753118 4.3990002
-1.7414335 -1.2851983 4.4050002
-1.7430148 -1.2782109 4.4090004
-1.7491834 -1.2686162 4.4040003
-1.7372212 -1.2840314 4.415
-1.7445962 -1.2712086 4.4130001
-1.7251778 -1.2954183 4.4260001
-1.731993 -1.2862129 4.4225001
-1.7259574 -1.2837192 4.428
-1.7208712 -1.3024472 4.4360003
-1.7208712 -1.2942429 4.4360003
-1.7212591 -1.2863283 4.4370003
-1.7153695 -1.3045025 4.4430003
-1.7071521 -1.3045025 4.4430003
-1.7153695 -1.2962852 4.4430003
-1.7075363 -1.296577 4.4440002
-1.647692 -1.3545829 4.5280004
-1.6407655 -1.3557795 4.5320001
-1.6506031 -1.3401974 4.5360003
-1.6444031 -1.345293 4.5343337
-1.6361656 -1.3547195 4.5425005
-1.6157492 -1.3713856 4.5560002
-1.6315268 -1.3620617 4.5530005
-1.6234626 -1.3665686 4.5539999
-1.6318852 -1.3539383 4.5540004
-1.6178771 -1.3647542 4.5620003
-1.6256015 -1.3557222 4.5600004
-1.6189409 -1.3572087 4.5650001
2.0121312 -1.5990589 4.605
1.3747734 -1.6414226 4.7270002
1.3592981 -1.6438533 4.7340002
1.3849795 -1.6431588 4.7320004
1.3949094 -1.6445478 4.7360001
1.3642502 -1.6357886 4.7360001
1.3771001 -1.6354432 4.7350001
1.3870282 -1.6368247 4.7390003
1.4048542 -1.6459368 4.7400002
1.4157084 -1.6483675 4.7470002
1.3963821 -1.6375155 4.7410002
1.4057434 -1.6382064 4.743
1.3573895 -1.6521872 4.7580004
1.4259884 -1.6501037 4.7520003
1.4169014 -1.6409695 4.7510004
1.4286891 -1.6444235 4.7610002
1.4420236 -1.6584376 4.776
1.3548251 -1.6686672 4.7800002
1.9042816 -1.7047646 4.7945004
1.923383 -1.7143679 4.809
1.9041939 -1.7211412 4.8280001
1.9045883 -1.7125665 4.829
1.2975322 -1.6861218 4.8300004
1.2920674 -1.6906601 4.8430004
1.2862896 -1.6948493 4.855
1.2791518 -1.6972928 4.8620005
1.905461 -1.7443528 4.8846669
1.2748619 -1.7035766 4.8800001
1.9019037 -1.7526461 4.8910003
1.2699866 -1.709162 4.8960004
1.2624767 -1.7112566 4.9020004
1.900211 -1.7503736 4.9100003
1.2299639 -1.716493 4.9170003
1.2380499 -1.7150966 4.9130001
1.2471365 -1.7150966 4.9130001
1.2557117 -1.7143984 4.9110003
1.2154726 -1.7217294 4.9320002
1.2097752 -1.7266167 4.9460001
1.90944 -1.8303646 5.0300002
1.9101993 -1.8217856 5.0320001
1.9109584 -1.8131993 5.0340004
1.906559 -1.8365507 5.0470004
1.9073144 -1.8279403 5.0490003
1.1231334 -1.7816024 5.0500002
1.1331462 -1.7826608 5.0530005
1.9021114 -1.8412812 5.0600004
1.9032391 -1.8330089 5.0630002
1.1721498 -1.7851304 5.0600004
1.166698 -1.7911278 5.0770001
1.1467875 -1.7893639 5.072
1.1584477 -1.7928917 5.0820003
1.1540228 -1.810093 5.1040001
1.1853539 -1.8147035 5.1170001
1.1677938 -1.8168312 5.1230001
1.1770389 -1.8164766 5.1220002
1.1721249 -1.8425897 5.1420002
1.1830138 -1.8447398 5.1480002
1.1718969 -1.8327231 5.1410003
1.182784 -1.8348621 5.1470003
1.1943883 -1.8476065 5.1560001
1.1939249 -1.8373575 5.1540003
1.2158138 -1.8607445 5.1660004
1.2055588 -1.8548875 5.1630001
1.2055588 -1.8405659 5.1630001
1.2282147 -1.8650668 5.1780005
1.2169905 -1.8529817 5.1710005
1.2169905 -1.8434179 5.1710005
1.2296379 -1.85764 5.184
1.2412577 -1.8654854 5.1925001
1.2529088 -1.8733511 5.2010002
1.2632563 -1.8744317 5.2040005
1.2741041 -1.8762326 5.2090001
1.2538724 -1.8651652 5.2050004
1.2639846 -1.8658819 5.2070003
1.2839845 -1.8862288 5.21
1.2948619 -1.888039 5.2150002
1.2849704 -1.8780336 5.2140002
1.2953585 -1.8791142 5.2170005
1.2745932 -1.8673153 5.2110004
1.2847239 -1.868032 5.2130003
1.2948619 -1.8687487 5.2150002
1.3171762 -1.8923835 5.2270002
1.3270974 -1.8927455 5.2280002
1.3067584 -1.8816355 5.2240005
1.8430836 -1.925429 5.2380004
1.3380451 -1.8945557 5.2330003
1.3181841 -1.8841568 5.2310004
1.3286204 -1.8852375 5.2340002
1.8361961 -1.9380722 5.2460003
1.8361961 -1.9283696 5.2460003
1.3605146 -1.9086008 5.2450004
1.350299 -1.8981761 5.243
1.3738728 -1.9136952 5.2590003
1.3618116 -1.9007103 5.2500005
1.3526168 -1.8917209 5.2520003
1.8327606 -1.9447221 5.2640004
1.8327606 -1.9349862 5.2640004
1.385967 -1.9169703 5.2680001
1.444152 -1.9166064 5.2670002
1.3754401 -1.9061409 5.2650003
1.3965051 -1.918062 5.2710004
1.3872825 -1.9090372 5.2730002
1.3975649 -1.9097613 5.2750001
1.4460713 -1.9093993 5.2740002
1.8309902 -1.9532192 5.2870002
1.7971877 -2.0227761 5.4210005
1.7940847 -2.030612 5.4420004
1.7879536 -2.0350897 5.4540005
1.7860157 -2.0545516 5.4790001
1.7847118 -2.0429256 5.4750004
1.7823648 -2.0620513 5.4990001
1.7820407 -2.0515077 5.4980001
1.7754172 -2.0658011 5.5090003
1.768605 -2.1042528 5.5840001
0.36423635 -2.1029997 5.7500005
0.37487099 -2.1029997 5.7500005
0.36461642 -2.0945485 5.756
0.37519696 -2.0941844 5.7550001
0.38671243 -2.1095829 5.7680001
0.38704765 -2.1007345 5.7730002
0.1723884 -2.2806139 6.1120005
0.18411332 -2.2858377 6.1260004
0.1728961 -2.2759929 6.1300001
0.18465431 -2.2811909 6.1440001
0.45856559 -2.3099174 6.1600003
0.47217098 -2.320792 6.1890001
0.57992995 -2.3745389 6.2400002
1.2275267 -2.4346433 6.3060002
1.3599043 -2.4536769 6.3250003
1.3711687 -2.4529009 6.3230004
1.3826444 -2.452513 6.3220005
