# .PCD v0.7 - Point Cloud Data file format
VERSION 0.7
FIELDS x y z
SIZE 4 4 4
TYPE F F F
COUNT 1 1 1
WIDTH 1200
HEIGHT 1
VIEWPOINT 0 0 0 1 0 0 0
POINTS 1200
DATA ascii
-0.77315843 0.070908181 1.3452501
-0.76829743 0.071877815 1.344
-0.79337728 0.066804022 1.376
-0.78783941 0.069197744 1.3730001
-0.80269808 0.062140271 1.3855001
-0.79366964 0.065445483 1.3831667
-0.78802669 0.066998221 1.3800001
-0.79111397 0.047221031 1.399
-0.81069845 0.057354335 1.3937501
-0.80935931 0.058778569 1.3970001
-0.76931298 0.054904785 1.3970001
-0.80337262 0.061630964 1.3933334
-0.79759669 0.062543929 1.3945
-0.79535508 0.043570805 1.4065001
-0.81746495 0.053978883 1.4065001
-0.8066296 0.057848617 1.40575
-0.8046208 0.060298052 1.4022501
0.91271132 0.0084933769 1.4130001
0.91206539 0.011098864 1.4120001
-0.82400352 0.045112748 1.414
-0.80405533 0.043901287 1.41725
-0.82182264 0.051652901 1.414
-0.81486154 0.055455014 1.411
-0.80539703 0.052121595 1.4150001
-0.78273326 0.051657639 1.4142501
-0.77812397 0.051612671 1.4130001
0.91415697 0.0019805857 1.4275
-0.82806146 0.048166126 1.427
-0.81165683 0.041538894 1.4260001
-0.8090955 0.046664558 1.4215001
-0.78546846 0.047365174 1.42275
-0.82475704 0.051586468 1.4243335
-0.81444722 0.054996338 1.4216667
0.91895986 -0.0019905269 1.4350001
-0.83050632 0.04573426 1.4335001
-0.82501602 0.045791596 1.4355
-0.81857693 0.047058504 1.4335001
-0.79311234 0.045718309 1.4330001
-0.8171494 0.050947778 1.4310001
0.90947658 -0.0019988497 1.4410001
0.91378528 -0.0064604655 1.4450001
0.92785496 -0.0028941624 1.4433333
0.93328518 -0.0046898755 1.4490001
0.93264109 0.0020094842 1.4480001
-0.82742798 0.038188986 1.4490001
-0.8138895 0.030045165 1.4440001
-0.82638562 0.046023246 1.4425001
-0.79892421 0.043383542 1.4435
0.9441998 -0.011440789 1.4555001
0.91847163 -0.0073799766 1.4510001
0.93543404 -0.0064909826 1.4523335
0.94113266 -0.0074104932 1.457
0.93188977 0.0020136456 1.451
-0.84874678 0.024943313 1.4580001
-0.8227061 0.026276456 1.4572501
-0.81824178 0.026263162 1.4565001
-0.84546989 0.037050616 1.457
-0.83237642 0.033923723 1.4576668
-0.82815945 0.032961369 1.455
-0.80307472 0.040925324 1.451
0.92956907 -0.010126024 1.46
0.93466502 -0.015567607 1.4637501
0.94759202 -0.011533034 1.467
0.97678596 -0.016480608 1.4646667
0.98148692 -0.018339202 1.4690001
0.93084246 -0.0074359239 1.462
-0.84991103 0.027677802 1.46
-0.83253205 0.025083065 1.4662501
-0.8288762 0.027696759 1.4610001
-0.84560537 0.036276668 1.4645714
-0.83837032 0.033189777 1.4650002
0.98446578 -0.021149289 1.4755001
0.9439351 -0.01294929 1.4740001
-0.83715409 0.019818341 1.478
-0.85823607 0.028037991 1.4790001
-0.84256041 0.026606709 1.4755001
-0.8364799 0.022460356 1.4720001
-0.82774711 0.022445098 1.4710001
-0.85396975 0.030669373 1.4740001
0.91713905 -0.02288343 1.4818001
0.9531678 -0.013019571 1.4820001
-0.84467137 0.018526463 1.484
-0.8386147 0.017142573 1.483
-0.86208355 0.024079595 1.4880002
-0.847929 0.02536338 1.4825001
-0.8196913 0.026750971 1.4835
0.98692924 -0.025318483 1.4962001
0.98779833 -0.01728221 1.4950001
-0.85355467 0.015895432 1.4947501
-0.84678209 0.014516281 1.4950001
-0.85680938 0.021873757 1.4940001
0.8898136 -0.032749601 1.5070001
0.98500031 -0.03393117 1.5064286
0.9920103 -0.034608964 1.507
0.97918522 -0.029882871 1.503
0.98645771 -0.027116708 1.5035001
-0.87106121 0.017379541 1.5035001
-0.8647787 0.015185615 1.5066001
-0.85636628 0.0118456 1.507
-0.82991326 0.017362203 1.5020001
1.004882 -0.03851473 1.5145001
-0.88309246 0.0091185085 1.5170001
-0.8643567 0.009098473 1.5136667
-0.85867584 0.0091124978 1.516
-0.88251036 0.011916343 1.516
-0.86619961 0.011884902 1.5120001
-0.85444832 0.011877041 1.511
0.9380796 -0.038705457 1.5220001
0.94635618 -0.038756318 1.524
0.95152867 -0.038680028 1.521
1.0043167 -0.038654596 1.5200001
0.96296048 -0.041929603 1.5370001
0.89824748 -0.047878295 1.5455
0.95735043 -0.047831826 1.544
0.96528679 -0.044949532 1.5430001
0.97114289 -0.045019891 1.5455
0.96129501 -0.052486561 1.5550001
0.90086943 -0.048017703 1.5500001
0.95671695 -0.048195831 1.55575
0.96680421 -0.048017703 1.5500001
0.97279888 -0.048172597 1.5550001
0.98352253 -0.048064172 1.5515001
0.90770394 -0.052799474 1.5642501
0.93653321 -0.054155122 1.5616668
0.95625383 -0.052426636 1.5618
0.97517914 -0.052851491 1.56575
0.95634294 -0.048358474 1.5610001
-0.93317032 -0.018208582 1.5755
-0.93726009 -0.024545273 1.5948572
0.97618186 -0.067553297 1.6055
1.0164853 -0.06746915 1.6035001
1.0227368 -0.06749019 1.6040001
-0.87604123 -0.031950615 1.6070001
-0.94027191 -0.028897317 1.6025
0.98241436 -0.072466388 1.6157502
-0.94522744 -0.034088638 1.6143333
-0.94507122 -0.036963493 1.622
0.95661789 -0.085580319 1.6476668
0.96087563 -0.084581435 1.6480001
0.95486641 -0.086806536 1.6516666
-0.68419904 -0.093809538 1.6860002
-1.0568779 -0.10069302 1.7147501
-1.0597565 -0.10430361 1.7220001
-1.0895164 -0.11176588 1.7390001
-1.0856754 -0.10848718 1.738
-1.0678794 -0.10798781 1.7300001
-1.0875494 -0.11189442 1.7410001
-0.95613903 -0.11719371 1.748
-0.83550131 -0.11199082 1.7425001
-0.70599061 -0.11887815 1.7490001
-1.0907694 -0.10867444 1.7410001
-0.7100355 -0.12253184 1.7550001
-0.70678961 -0.12253184 1.7550001
-1.0920478 -0.11285847 1.756
-1.0837711 -0.1141233 1.7505001
-0.9564423 -0.11509638 1.7530001
-0.70434546 -0.1194219 1.7570001
-0.71162236 -0.12663773 1.7670001
-0.70537323 -0.12213943 1.765
-1.0951583 -0.11643681 1.7610002
-1.1219196 -0.12228678 1.7750001
-1.1186367 -0.12228678 1.7750001
-0.72303563 -0.12749775 1.779
-0.71610415 -0.12685274 1.7700001
-0.73084652 -0.12771276 1.7820001
-0.72836727 -0.12785609 1.784
-1.13265 -0.14421679 1.8240001
-1.1416289 -0.14492838 1.8330001
-1.1376177 -0.1482376 1.8320001
-1.1543787 -0.14760497 1.84525
-1.1459886 -0.14888494 1.84
0.2830002 -0.26217759 2.0469999
0.28505269 -0.26700431 2.0550001
0.28507304 -0.2736311 2.0620003
0.29121569 -0.2740292 2.0650001
0.29051057 -0.26955572 2.0600002
0.28850988 -0.27892482 2.0730002
0.29508793 -0.27527145 2.0743334
-1.1537971 -0.30373636 2.1680002
-1.1452492 -0.30359626 2.1670001
-1.1362773 -0.30387646 2.1690001
-1.1612808 -0.29357749 2.1670003
-1.1535895 -0.29445457 2.1645999
-1.1440154 -0.29526368 2.1646667
-1.1341181 -0.29518184 2.1677501
-1.1648288 -0.30579695 2.1755002
-1.1573271 -0.30540982 2.17275
-1.1452783 -0.3086924 2.1746666
-1.1330725 -0.30624613 2.1744001
-1.1250812 -0.30263659 2.1745
-1.115413 -0.30274123 2.1752501
-1.1059889 -0.30291495 2.1765001
-1.1624177 -0.31665516 2.1880002
-1.1548929 -0.31524801 2.1852503
-1.1438583 -0.31453589 2.1873333
-1.1340908 -0.31463179 2.1880002
-1.1265119 -0.31477559 2.1890001
-1.1160499 -0.31467974 2.1883335
-1.1022271 -0.31015921 2.1850002
-1.0979207 -0.31065604 2.1885002
-1.1244106 -0.30959141 2.181
-1.1143274 -0.30959141 2.181
-1.1047499 -0.30838877 2.1820002
-1.0950085 -0.30373034 2.1844287
-1.1052223 -0.32028061 2.1990001
-1.1722261 -0.31563836 2.1950002
-1.1676342 -0.31955239 2.194
-1.1529043 -0.31940675 2.1930003
-1.1455778 -0.3196252 2.1945
-1.1349999 -0.31950381 2.1936667
-1.1237458 -0.31918824 2.1915002
-1.1138653 -0.31926107 2.1920002
-1.1062603 -0.31636569 2.1930001
-1.0953425 -0.31368184 2.1955001
-1.0854368 -0.31172067 2.1960001
-1.0853205 -0.30502561 2.1916666
-1.180037 -0.32071757 2.2020001
-1.1748964 -0.32042626 2.2
-1.1355164 -0.32545391 2.2065001
-1.1245512 -0.32523265 2.2049999
-1.115365 -0.32552767 2.2070003
-1.1016561 -0.32042626 2.2
-1.0955046 -0.32100886 2.2040002
-1.0847496 -0.32144579 2.207
-1.1789652 -0.31635737 2.2
-1.0940152 -0.31650117 2.2010002
-1.0844125 -0.31597495 2.2030003
-1.0756114 -0.31401959 2.2050002
-1.0646625 -0.31337672 2.2076666
-0.74301791 -0.33717513 2.2165
-0.73751384 -0.33752751 2.2143335
-1.1522108 -0.32729763 2.2190001
-1.1475893 -0.32715014 2.2180002
-1.1112535 -0.32611763 2.2110002
-1.1044036 -0.32651097 2.2136667
-1.0945823 -0.32663387 2.2145
-1.0850745 -0.32685515 2.2159998
-1.0760282 -0.32352775 2.2142501
-1.0636226 -0.32246533 2.214
-1.0568643 -0.32290229 2.217
-1.0724056 -0.31793916 2.2110002
-1.0649488 -0.31815487 2.2125001
-1.0952381 -0.3410382 2.2283335
-1.0840851 -0.34236136 2.2279999
-1.0753978 -0.34381208 2.2285001
-1.0667074 -0.34114024 2.2290001
-0.76988447 -0.34114024 2.2290001
-1.1429808 -0.33435905 2.2250001
-1.1342381 -0.33352137 2.224
-1.1245826 -0.33361638 2.2228
-1.1138366 -0.33357239 2.2243335
-1.1053191 -0.33400613 2.2254002
-1.0952876 -0.3342452 2.2242501
-1.0848811 -0.33420658 2.224
-1.07496 -0.33431846 2.22475
-1.0663815 -0.33418426 2.2266002
-0.76919365 -0.33671531 2.227
-0.75288731 -0.33473241 2.2275
-0.74759102 -0.33420229 2.224
-1.072665 -0.32744512 2.22
-1.0635152 -0.32778928 2.2223337
-1.0536753 -0.32587063 2.2232502
-1.0444319 -0.3254945 2.2267144
-1.1367332 -0.34236461 2.237
-1.1258882 -0.34221154 2.2360001
-1.1145494 -0.34397274 2.234
-1.1040745 -0.34477904 2.2312002
-1.0636728 -0.34561604 2.2312858
-1.0551072 -0.34550259 2.2350004
-1.0482479 -0.34251767 2.2379999
-0.78299093 -0.34650195 2.237
-0.77454269 -0.34642449 2.2365
-0.76851022 -0.34443513 2.237
-0.75508428 -0.34190547 2.2340002
-1.1419368 -0.33732009 2.2310002
-1.1373006 -0.3371689 2.23
-1.120803 -0.3371689 2.23
-1.1166786 -0.3371689 2.23
-1.0630616 -0.3371689 2.23
-1.0556002 -0.33535838 2.2316666
-1.0455091 -0.3354159 2.2347999
-1.0379009 -0.33010009 2.2380002
-0.77299303 -0.33423927 2.2380002
-0.76547855 -0.33467513 2.2354
-0.75870627 -0.33548468 2.2325001
-0.74342132 -0.3330445 2.23
-1.0374563 -0.35390672 2.2490001
-0.77333164 -0.35359323 2.247
-0.76591057 -0.35341793 2.2415001
-1.1335566 -0.34535986 2.243
-1.1242602 -0.34712154 2.2410002
-1.0439076 -0.34589511 2.2437999
-1.0346832 -0.34004164 2.2490001
-0.76435876 -0.34435961 2.2409999
-1.0418274 -0.33898324 2.2420001
-1.0365316 -0.33466831 2.2455001
-1.03298 -0.35566148 2.2513332
-1.0257629 -0.3558352 2.2568336
-0.784688 -0.35534915 2.2537501
-0.77748311 -0.35699695 2.2510002
-1.0344403 -0.3456817 2.2518749
-1.0274189 -0.34539491 2.2568002
-0.80048633 -0.36824468 2.2690001
-1.0212898 -0.35321626 2.2623334
-1.0164328 -0.35580531 2.2655001
-0.79400861 -0.35672623 2.2625
-1.0224006 -0.34428936 2.2632501
-1.018032 -0.3449361 2.2675002
-1.0120934 -0.36468872 2.273
-1.0065266 -0.36588722 2.2767146
-0.80225027 -0.36274564 2.2740002
-0.77121216 -0.36929959 2.2755001
-1.013196 -0.35337624 2.2723334
-1.0072241 -0.35468632 2.2762501
-0.80295587 -0.35675234 2.276
-1.0137478 -0.34562063 2.2720001
-0.77164608 -0.3747392 2.283
-1.0032194 -0.36394346 2.2815001
-0.99808973 -0.36438236 2.28425
-1.0021777 -0.35493013 2.2823334
-0.99785829 -0.35680473 2.2853334
-0.99229193 -0.37339112 2.2920001
-0.9896543 -0.3773655 2.299
-0.99278164 -0.36553907 2.2915001
1.0724987 -0.41726065 2.3080001
-0.99008483 -0.37327579 2.3000002
-0.98883128 -0.37441063 2.3069999
-0.99008483 -0.36476812 2.3000002
-0.98904562 -0.36382413 2.3075001
1.0674487 -0.41775942 2.3186667
1.0743548 -0.41541782 2.312
-0.98305964 -0.38616335 2.3135002
-0.98491287 -0.37535796 2.3128335
-0.98509055 -0.36473054 2.3132501
1.3982561 -0.43379337 2.3280001
1.0467457 -0.42063537 2.3266666
1.0512762 -0.42588553 2.3240001
1.0451622 -0.41483918 2.3263333
1.0545661 -0.41527048 2.3237503
1.0638192 -0.41474336 2.3226001
1.0747085 -0.41120258 2.3220003
-0.98153085 -0.38510334 2.3200002
-0.97740304 -0.3838658 2.3255
-0.98153085 -0.37437624 2.3200002
-0.97740304 -0.37526381 2.3255
1.0495967 -0.43041015 2.3330002
1.3947878 -0.43472505 2.3330002
1.0467653 -0.4258213 2.3315001
1.0452818 -0.41315061 2.3330002
-0.97686851 -0.39398721 2.3345001
-0.78624791 -0.39258322 2.3390002
-0.97554743 -0.38568109 2.3365002
-1.6942219 -0.37517229 2.3383334
-1.6936181 -0.36423194 2.3375001
1.3864851 -0.43686792 2.3445001
-0.78809673 -0.40434533 2.3445001
-0.78759253 -0.39758795 2.3430002
-1.694712 -0.38538808 2.3425999
-1.6932697 -0.37375435 2.3430002
1.3883386 -0.44535786 2.355
1.3843968 -0.43826544 2.352
-0.78581828 -0.39672175 2.3550003
-1.7004699 -0.38285112 2.3590002
-1.699749 -0.38704997 2.358
-1.7004699 -0.37412518 2.3590002
-1.699749 -0.3783277 2.358
1.3900217 -0.45019615 2.3690002
1.4951769 -0.45019615 2.3690002
-0.79117084 -0.41473734 2.3666668
-0.79027939 -0.40552372 2.3640001
-0.78524226 -0.40081212 2.3620002
-1.7018588 -0.39728281 2.3670001
-1.6975448 -0.39190906 2.3610001
-0.7828573 -0.39745063 2.368
-1.7011398 -0.38398719 2.3660002
-1.6997018 -0.38803482 2.3640001
-1.7007804 -0.37734309 2.3655
1.3897345 -0.45592082 2.3760002
1.4917457 -0.4511463 2.3740001
1.3911952 -0.44619104 2.3710001
-0.78956413 -0.41400045 2.375
-0.78620607 -0.40461585 2.3715
-1.7029791 -0.3941752 2.3746669
-0.78077894 -0.39862552 2.375
-0.77638638 -0.39862552 2.375
-1.7046525 -0.3835752 2.3770001
1.3876723 -0.45668834 2.3800001
1.3961685 -0.4536168 2.3870001
1.3949987 -0.44882566 2.3850002
1.4961393 -0.44652233 2.3845
-0.7894693 -0.41405731 2.388
-1.7030451 -0.40376419 2.3846002
-0.78511858 -0.40632385 2.3815002
-0.77932847 -0.40454534 2.3840001
-1.7052222 -0.39458731 2.3859999
1.3746516 -0.46560311 2.3956668
1.386502 -0.46881694 2.3970001
1.3953309 -0.45526376 2.3956668
-0.79079163 -0.42581183 2.3920002
-0.7901305 -0.4188244 2.3900001
-0.78483802 -0.41402698 2.3963335
-0.77644074 -0.41314387 2.3955002
-0.76709956 -0.41509765 2.3940001
-1.7056956 -0.40453562 2.3970001
-0.78571016 -0.40998378 2.3900001
-1.7033828 -0.39489618 2.395
1.3788608 -0.46999043 2.4030001
-0.79113454 -0.43284154 2.4065003
-0.79097015 -0.42607817 2.4060001
-0.78542751 -0.42104411 2.4026668
-0.77491164 -0.42136541 2.4045
-0.76681334 -0.4218035 2.4070001
-1.7055209 -0.41221383 2.4030001
-0.78012007 -0.41613802 2.4000001
-0.7626825 -0.41631141 2.401
-1.7041013 -0.40521067 2.401
1.3785237 -0.47739631 2.4180002
-0.78962576 -0.43446219 2.4155002
-0.78673685 -0.42740631 2.4135001
-1.7103491 -0.41707602 2.4140003
-1.7102791 -0.40997547 2.4160001
-1.7074475 -0.4048357 2.4120002
1.3796639 -0.47331539 2.4200001
1.3813742 -0.46942079 2.4230001
-0.78889644 -0.43653107 2.427
-1.7121651 -0.42271346 2.4250002
-1.7061399 -0.42513305 2.4260001
-1.6980095 -0.42478257 2.424
-0.78246844 -0.42873451 2.421
-0.77671236 -0.42926577 2.4240003
-1.7139304 -0.41417223 2.4275002
-1.7106676 -0.40552449 2.4250002
1.3772924 -0.48611784 2.4347999
1.3797749 -0.47193936 2.4360001
1.3813066 -0.47580907 2.4327502
-0.78817827 -0.44539467 2.4386668
-0.78457808 -0.43562782 2.4345002
-0.77605581 -0.43364632 2.4360001
-1.7119054 -0.42151314 2.4310002
-1.7069151 -0.42194661 2.4335001
-1.7113432 -0.41424581 2.4323335
-1.706048 -0.41591668 2.4333334
1.369063 -0.48645192 2.4410002
1.3766809 -0.48449171 2.4425001
1.3786504 -0.47614139 2.4460001
1.3803506 -0.478205 2.4450002
-0.78505039 -0.44402066 2.4476669
-0.77439821 -0.43524569 2.4450002
-0.7655102 -0.43307322 2.4455001
-1.6862772 -0.42637408 2.4460001
1.3785977 -0.48529369 2.4580002
1.380893 -0.48450392 2.4540002
1.3752326 -0.47957408 2.4520001
-0.78740138 -0.45443058 2.4550002
-0.44656208 -0.45565194 2.4575
-0.43720433 -0.45537382 2.4560001
-0.7814526 -0.44692388 2.4553335
-0.75836664 -0.44001186 2.4590001
-0.44647169 -0.44646984 2.4570003
-0.43689302 -0.44597036 2.4542501
-0.42750898 -0.44565308 2.4525001
-0.77255118 -0.43902767 2.4535003
-0.76425505 -0.43947503 2.4560001
1.3774058 -0.49103546 2.4640002
1.3745201 -0.48707059 2.467
-0.45002088 -0.46369243 2.4640002
-0.78513014 -0.45694703 2.4645
-0.77483481 -0.45075142 2.4680002
-0.76601714 -0.45093408 2.4690001
-0.45707467 -0.45479271 2.4651668
-0.77585793 -0.44546372 2.4640002
-0.76565486 -0.44483095 2.4605002
-0.75990868 -0.44546372 2.4640002
1.3766876 -0.49322757 2.4750001
1.3743961 -0.48636222 2.4750001
-0.4867534 -0.47072005 2.4770002
-0.47988248 -0.47072005 2.4770002
-0.78544754 -0.46532214 2.4726667
-0.50538552 -0.46412912 2.4785001
-0.49541607 -0.4656662 2.4744999
-0.48660716 -0.46370664 2.4762502
-0.47560278 -0.4637064 2.4738002
-0.46538609 -0.46309966 2.473
-0.45568499 -0.46482155 2.47
-0.7816112 -0.45660743 2.4750001
-0.77521402 -0.45688415 2.4765
-0.76482821 -0.45508468 2.4750001
-0.75673771 -0.45221254 2.4760001
-0.50538552 -0.45725316 2.4785001
-0.49674734 -0.45550957 2.4773333
-0.48459288 -0.45557109 2.4776669
-0.47407836 -0.45484877 2.4754002
-0.46538609 -0.45395064 2.473
-1.7122298 -0.44323274 2.4770002
1.3685545 -0.48983467 2.4810002
-0.53477103 -0.47496778 2.4872501
-0.52504194 -0.47449085 2.4847503
-0.51579964 -0.47444335 2.4845002
-0.78319025 -0.46441001 2.48
-0.77489877 -0.46494076 2.4828334
-0.76546746 -0.46495423 2.4870002
-0.53284484 -0.46839708 2.4890001
-0.5253067 -0.46553314 2.4860001
-0.51564407 -0.46511251 2.4837501
-0.76056296 -0.45771435 2.4810002
-0.75372475 -0.45667616 2.4836667
-0.74920517 -0.45919025 2.4890001
-0.52536023 -0.45638353 2.4862502
-0.51564366 -0.45592415 2.4837501
-0.50599724 -0.45321706 2.4815001
-0.49422398 -0.45294312 2.48
-0.48744255 -0.45303443 2.4805002
-1.7168427 -0.44732201 2.4870002
-1.7068491 -0.43273985 2.4825001
1.3586354 -0.50443673 2.4965
1.3640563 -0.50388128 2.4937501
1.3639195 -0.49460942 2.4935
-0.76741648 -0.47536096 2.4933336
-0.58582664 -0.47952276 2.4990001
-0.57288748 -0.47586584 2.4980001
-0.56406778 -0.47640043 2.4947503
-0.55411667 -0.47577959 2.4915001
-0.54468191 -0.47558865 2.4905
-0.76362848 -0.46877345 2.4910002
-0.75537211 -0.46706334 2.4941669
-0.74759334 -0.46103513 2.4990001
-0.57184643 -0.4632529 2.4985001
-0.56450045 -0.46522042 2.4966667
-0.55474693 -0.46478534 2.4943335
-0.54541057 -0.46469274 2.4938333
-0.53655976 -0.46588838 2.4920001
-1.7225987 -0.4574374 2.4920001
-1.7193685 -0.45088738 2.4940002
-0.74950618 -0.45476949 2.49
-1.71382 -0.44201624 2.4960001
-0.76422894 -0.47749871 2.5005002
-0.75528055 -0.47537595 2.5015001
-0.74654877 -0.47339526 2.5032501
-0.63457489 -0.47216082 2.5090001
-0.62761426 -0.47216082 2.5090001
-0.60381138 -0.47400826 2.5065002
-0.59300905 -0.47454399 2.5020001
-0.58356702 -0.47439274 2.5012002
-0.57681352 -0.47277904 2.5
-1.2136568 -0.46482939 2.5070002
-0.74580097 -0.46491957 2.5033333
-0.60375047 -0.46469104 2.5062499
-0.59435987 -0.4645974 2.5057502
-0.58468407 -0.46427315 2.5040002
-0.57681352 -0.46353149 2.5
-1.724287 -0.45509756 2.5044999
-1.72103 -0.44851148 2.5065002
-0.75103366 -0.48405153 2.5105002
-0.74532646 -0.4848707 2.51475
-0.66341704 -0.48640183 2.5186667
-0.65397704 -0.4846074 2.5158
-0.64275026 -0.48467791 2.5137501
-0.63307434 -0.48438823 2.5122499
-0.62347001 -0.48414698 2.5110002
-0.61418271 -0.48414698 2.5110002
-1.2231531 -0.47366631 2.5170002
-1.2163193 -0.47514522 2.5125003
-0.7427814 -0.47542658 2.5140002
-0.66479391 -0.47501877 2.5180001
-0.65413249 -0.47634578 2.5163999
-0.64513874 -0.47542658 2.5140002
-0.63630635 -0.47606733 2.51125
-0.62253094 -0.47550717 2.5103335
-0.61412179 -0.47481221 2.5107503
-1.7261798 -0.46612638 2.5139999
-1.2212093 -0.4659428 2.513
-0.74337232 -0.46882477 2.516
-0.65082228 -0.46919745 2.5180001
-0.64263594 -0.46733454 2.5163333
-0.63031107 -0.46547788 2.5105002
-0.62384146 -0.46584824 2.5125003
-1.7258643 -0.45772529 2.5146668
-1.2278082 -0.45970073 2.5170002
-0.7404806 -0.48393613 2.5220001
-0.73531282 -0.48514864 2.5248573
-0.72568637 -0.48495889 2.5273335
-0.71610206 -0.484799 2.5265
-0.70647651 -0.48460618 2.5255001
-0.69615275 -0.48395219 2.5255716
-0.68536031 -0.48587322 2.5251427
-0.67324728 -0.48655802 2.5235002
-1.2857435 -0.47300521 2.5283999
-1.2775909 -0.47573638 2.5280001
-1.2324424 -0.47311908 2.5265002
-1.2255828 -0.47927171 2.5220001
-0.74136144 -0.47516933 2.5250003
-0.71914887 -0.47592455 2.529
-0.68092108 -0.47535753 2.526
-0.67544603 -0.47479424 2.523
-0.66998219 -0.47889161 2.5200002
-1.727072 -0.46358907 2.5255001
-1.2897906 -0.46656978 2.529
-1.2422795 -0.46395713 2.5275002
-1.2371151 -0.4637745 2.5265002
-1.2297595 -0.46509388 2.5210001
-1.7243365 -0.45352781 2.5215001
-1.3136742 -0.48250231 2.539
-1.3044448 -0.48403937 2.5347502
-1.2957476 -0.48341852 2.5315001
-1.2715837 -0.48313159 2.5300002
-1.2656887 -0.48356152 2.5322502
-1.2566948 -0.48370451 2.5330002
-1.2448999 -0.48367283 2.5328336
-1.2351253 -0.48351446 2.5320001
-1.7258533 -0.47452217 2.5340002
-1.3136742 -0.47780642 2.539
-1.3043164 -0.47461537 2.5345001
-1.2952359 -0.47386628 2.5305002
-1.2738435 -0.47344273 2.5345001
-1.264843 -0.47475508 2.5352499
-1.2565747 -0.4753654 2.5343335
-1.2467098 -0.47410107 2.5317502
-1.2395635 -0.47405449 2.5315001
-0.73510188 -0.4737528 2.5324001
-0.72511327 -0.47442669 2.5335002
-0.6942454 -0.47414625 2.5320001
-0.68708575 -0.47405264 2.5315003
-1.7261939 -0.46524024 2.5345001
-1.3052168 -0.46556076 2.5362501
-1.2947831 -0.46412244 2.5326669
-1.284003 -0.46471414 2.5342002
-1.2738008 -0.46682557 2.5367503
-1.2548475 -0.4651489 2.5340002
-1.2484341 -0.46450689 2.5305002
-1.3348255 -0.48421264 2.5480001
-1.3261926 -0.48599696 2.5450001
-1.3174964 -0.48588812 2.5403335
-1.7242725 -0.47539249 2.5462003
-1.3701686 -0.47478756 2.5480001
-1.3638853 -0.47792986 2.5480001
-1.3556309 -0.47700456 2.54725
-1.3451526 -0.47662956 2.5452499
-1.3361245 -0.47542429 2.543
-1.3269805 -0.47602072 2.5420001
-1.3174964 -0.47492489 2.5403335
-1.7269645 -0.46735072 2.546
-1.3530645 -0.49277642 2.5557504
-1.3447064 -0.49367699 2.5563333
-1.7263167 -0.48393661 2.559
-1.3564091 -0.48648274 2.5516667
-1.3460966 -0.48487777 2.5515001
-1.336921 -0.48969272 2.552
-1.0864531 -0.50226194 2.5680001
-1.7280033 -0.47493392 2.5615001
-1.0831096 -0.50402224 2.5770001
-1.0720274 -0.50918323 2.5790002
-1.0644608 -0.50898576 2.5780001
-1.0530828 -0.50809735 2.5735002
-1.0435624 -0.50809735 2.5735002
-1.036222 -0.50799865 2.5730002
-1.72725 -0.49639139 2.5745001
-1.7306356 -0.48238438 2.5760002
-1.7291704 -0.48775426 2.575
-1.0923761 -0.50977552 2.582
-1.0852129 -0.50977552 2.582
-1.0778412 -0.50728816 2.5815001
-1.7321898 -0.4967925 2.5890002
-1.7352005 -0.50485331 2.5935001
-1.0755341 -0.50832504 2.5990002
-1.0694914 -0.50773829 2.5960002
-1.7324653 -0.49276429 2.5930002
-1.7321317 -0.48547703 2.5925002
-1.0811723 -0.50871623 2.6010001
-1.7357517 -0.49529746 2.6063335
-1.7467504 -0.51446307 2.618
-1.7413288 -0.50632739 2.6135001
-1.7379162 -0.50120586 2.6120002
-1.7475638 -0.51613486 2.6265001
-1.7410475 -0.50836158 2.6240001
-1.736191 -0.50472313 2.6240001
-1.7443529 -0.51562691 2.6363335
-1.7343837 -0.5106864 2.6360002
-1.7322421 -0.50518656 2.63275
-1.7529906 -0.52406478 2.6420002
-1.745306 -0.52469343 2.6451669
-1.7367256 -0.52505755 2.6470003
-1.7350732 -0.51510704 2.642
-1.7440989 -0.53390855 2.6545
-1.7358617 -0.52595729 2.6556666
-1.7386997 -0.51730883 2.6575003
-1.7429525 -0.53581929 2.664
-1.7360681 -0.53029436 2.661
-1.737373 -0.52084249 2.6630001
-0.68039954 -0.58015651 2.71
-0.67557001 -0.58717859 2.7309999
-0.67420185 -0.59547961 2.7460003
-0.6698541 -0.59867418 2.7490001
-0.67420185 -0.58786339 2.7460001
-0.66694623 -0.60063416 2.7580001
-1.1825686 -0.59064639 2.7590001
-0.67082882 -0.59445363 2.753
-0.67009777 -0.58871967 2.7500002
-0.66354942 -0.58458859 2.7545002
-0.66779262 -0.59373671 2.7615004
-1.1819385 -0.58649868 2.7635002
-0.65864938 -0.58702922 2.766
-1.1800116 -0.59449983 2.7770002
-0.66604483 -0.5967477 2.7755003
-1.180649 -0.58711225 2.7785001
-0.66904449 -0.60716754 2.7880001
-1.1772025 -0.59310371 2.7825003
-0.66245937 -0.59557027 2.7820001
-0.66484058 -0.60545862 2.7920003
-1.8802953 -0.78186297 3.1845002
1.8278053 -0.8698861 3.2270002
1.8349077 -0.86602682 3.2237501
1.8448524 -0.86649573 3.2255001
1.8182191 -0.87244701 3.2365003
1.8166306 -0.86713034 3.2390001
1.8703115 -0.88182557 3.2490001
1.7976496 -0.87554699 3.2480001
1.8049908 -0.87473834 3.2450001
1.8147552 -0.87665713 3.2410002
1.8608596 -0.87419915 3.2430003
1.7374349 -0.88453972 3.2590001
1.7464762 -0.88453972 3.2590001
1.8797855 -0.88345408 3.2550001
1.7868844 -0.87462515 3.2557499
1.7930214 -0.87321544 3.2505002
1.8734777 -0.87429273 3.2545002
-1.8684565 -0.81622833 3.2510002
-1.8678817 -0.80996639 3.2500002
1.7290858 -0.88039917 3.2660003
1.7560562 -0.8848111 3.2600002
1.73572 -0.87766618 3.2633336
1.7437677 -0.87565452 3.2633336
1.7546551 -0.87657112 3.2630002
1.7648159 -0.8771289 3.2613335
1.7737646 -0.87556595 3.2630002
1.7807198 -0.87603474 3.2610002
-0.86569631 -0.83547866 3.2675002
-0.85354334 -0.83541405 3.2672501
-0.86280578 -0.82654071 3.2680001
-0.85702378 -0.82679361 3.2690001
1.7234459 -0.88215137 3.2725
-0.87650037 -0.84319544 3.2740002
-0.87757128 -0.8351326 3.2780001
-0.84377414 -0.83570486 3.2723334
-0.83991218 -0.83991218 3.2730002
-0.8777051 -0.82616502 3.2785001
-0.86745429 -0.82309836 3.2703335
-0.8537752 -0.82351738 3.2720001
-0.84506464 -0.82687974 3.2773333
-0.89241076 -0.84984261 3.2880001
-0.88471216 -0.84222174 3.2820001
-0.88552088 -0.83387816 3.2850001
-0.83691597 -0.83084035 3.2850001
2.2529819 -0.90759933 3.2990003
-0.9253425 -0.8521688 3.2970002
-0.91578031 -0.85483003 3.2955003
-0.83818978 -0.85035956 3.2900002
-0.92576349 -0.84340513 3.2985001
-0.91612655 -0.84295702 3.2967501
-0.90358937 -0.84568608 3.2955003
-0.89322495 -0.8445313 3.2910001
-0.83946365 -0.84555775 3.2950001
-0.89498913 -0.83704984 3.2975001
-0.8355267 -0.8355267 3.2915001
2.2465491 -0.90869975 3.303
2.2543609 -0.903274 3.3055
-0.93454796 -0.85501194 3.3080001
-0.93454796 -0.84583569 3.3080001
-0.90495938 -0.8408649 3.3005002
2.2393162 -0.90832943 3.3240001
2.239887 -0.91722828 3.3340001
-0.84677428 -0.87773496 3.348
2.2451103 -0.9343006 3.3510001
2.232996 -0.93668461 3.3670003
2.245822 -0.93848276 3.3660002
-0.84535247 -0.88582885 3.3670001
-0.84585458 -0.87700945 3.3690002
2.2329087 -0.94583082 3.3700001
2.2431281 -0.93502694 3.3760002
-0.84436178 -0.87558329 3.3755002
-0.84261429 -0.8957662 3.381
-0.84336191 -0.88717294 3.3840001
-0.84254539 -0.90238696 3.4060001
-0.84353489 -0.89398926 3.4100001
-1.4054055 -0.903588 3.4345002
-1.396487 -0.90398312 3.4360001
-0.84348887 -0.90385294 3.4355001
-1.410017 -0.89497137 3.4380002
-1.4036585 -0.89497137 3.4380002
-1.3972999 -0.89497137 3.4380002
-1.4176116 -0.91484475 3.4410002
-1.3937733 -0.91590822 3.4450002
-1.4190536 -0.90621889 3.4445002
-1.3933687 -0.90608782 3.4440002
-1.4305969 -0.91909862 3.4570003
-1.3904223 -0.91470993 3.4525001
-0.84139913 -0.91164881 3.4530001
-1.3902209 -0.90500033 3.4520001
-1.3894155 -0.89809519 3.45
-1.4567568 -0.92149138 3.4660001
-1.4399004 -0.92095965 3.4640002
-1.3906513 -0.92228901 3.4690001
-1.4638348 -0.91989619 3.4600003
-1.4330798 -0.91428894 3.4630001
-1.3898497 -0.91534501 3.4670002
-1.4343214 -0.90867066 3.4660001
-1.3902506 -0.90919495 3.4680002
-1.4488122 -0.92255485 3.4700003
-1.3922549 -0.92977577 3.473
-1.4641751 -0.91772115 3.4760001
-1.4590044 -0.91851324 3.4790001
-1.4446807 -0.91437376 3.4755001
-1.391019 -0.92036134 3.4860001
-1.4641116 -0.91325855 3.4835
-1.4548664 -0.91674072 3.4845002
-1.3958074 -0.93646866 3.4980001
-1.3930141 -0.92813802 3.4910002
-1.3889406 -0.92326552 3.4970002
-1.3913237 -0.93132842 3.5030003
-1.3966856 -0.94467556 3.5165
-1.3978908 -0.94010198 3.5360003
-1.4030302 -0.95668602 3.5490003
-1.4014487 -0.94905126 3.5450001
-1.4061928 -0.9654212 3.5570002
-1.4027619 -0.96099907 3.5650001
-1.3975391 -0.96524298 3.5685
-1.4023684 -0.95413786 3.5640001
-1.3969517 -0.95494103 3.5670002
-1.4047294 -0.96894962 3.5700002
-1.393083 -0.96342516 3.5740001
1.6449652 -1.0449787 3.6045003
1.6461065 -1.0390323 3.6070004
1.6383686 -1.0438111 3.612
1.6430696 -1.0346508 3.6150002
1.6508149 -1.0332198 3.6100001
2.1299021 -1.0657955 3.6530001
2.1359067 -1.0637248 3.6575003
2.1460547 -1.0637257 3.6575003
2.1531138 -1.0638707 3.658
2.1407526 -1.0610687 3.6600001
1.5563686 -1.0803835 3.7030001
1.5545413 -1.0907556 3.7150002
1.5689163 -1.0946351 3.7165003
1.5740941 -1.0934541 3.7125001
1.55588 -1.0858567 3.7100003
1.5670167 -1.0830094 3.7120001
1.5575538 -1.0767238 3.7140002
1.5682831 -1.0770137 3.7150002
1.5530863 -1.0945724 3.7280002
1.5643543 -1.0996946 3.7220001
1.5474355 -1.0954533 3.7310002
1.5480577 -1.0855384 3.7325001
1.5541277 -1.0849566 3.7305002
2.0658741 -1.1465337 3.8090003
2.0726235 -1.1444267 3.802
2.0826252 -1.1441257 3.8010001
2.0666783 -1.134475 3.8040004
2.0769603 -1.1343259 3.8035002
-1.4112641 -1.0808561 3.8010001
-1.4127493 -1.0749562 3.8050001
-1.4138631 -1.0687608 3.8080001
2.0913918 -1.1418822 3.8170002
2.0913918 -1.1348227 3.8170002
-1.4294488 -1.0910343 3.8120003
-1.4309489 -1.0851215 3.8160002
-1.4216523 -1.0834153 3.8100002
-1.4238911 -1.0745331 3.816
2.0680182 -1.1516509 3.8260002
2.1031241 -1.1550357 3.8255
2.1273284 -1.1511993 3.8245001
2.0674777 -1.1442755 3.8250003
2.1044986 -1.145173 3.8280001
-1.4333862 -1.0763628 3.8225002
2.0755854 -1.1629671 3.8400002
2.1239581 -1.157069 3.8440003
-0.42506811 -1.1044679 3.8465002
2.0842338 -1.1749444 3.8560002
-0.42644945 -1.1258979 3.8590002
-0.41931221 -1.1258979 3.8590002
-0.29429579 -1.1254603 3.8575001
-0.28370488 -1.1258979 3.8590002
-0.4333058 -1.1144719 3.8565001
-0.42611793 -1.117891 3.8560002
-0.41547382 -1.1144692 3.8565001
-0.29312006 -1.1159958 3.857667
-0.28359461 -1.1147591 3.8575001
-0.27646011 -1.1147591 3.8575001
-0.2694304 -1.1151921 3.8590002
-0.42386615 -1.1356776 3.868
-0.30535376 -1.133916 3.8620002
-0.29471311 -1.1342096 3.8630002
-0.284293 -1.135384 3.8670001
-0.27721265 -1.1356776 3.8680003
-0.26634404 -1.1350904 3.8660002
-0.46321338 -1.1213698 3.8680003
-0.45605952 -1.1249478 3.868
-0.44617593 -1.1252657 3.865
-0.4338114 -1.1264814 3.8610003
-0.41260222 -1.1270649 3.8630002
-0.31306294 -1.1252377 3.8690002
-0.3052747 -1.1264814 3.8610003
-0.27663931 -1.1261897 3.8600001
-0.26596469 -1.1263356 3.8605003
-0.25571796 -1.1248009 3.8675003
-0.46333316 -1.1145041 3.8690002
-0.45582372 -1.1136398 3.8660002
-0.44340935 -1.1147732 3.8616669
-0.41238859 -1.1193405 3.8610003
-0.40587744 -1.113928 3.8670001
-0.30543283 -1.1163471 3.8630002
-0.26242912 -1.1157701 3.8610003
2.0881448 -1.184777 3.8765001
-0.50757599 -1.1317331 3.8790002
-0.49620655 -1.1339293 3.8742502
-0.48567745 -1.1344403 3.8760002
-0.47615972 -1.1357348 3.8763335
-0.46417144 -1.1380265 3.8760002
-0.45641324 -1.1365584 3.8710003
-0.41377711 -1.1374393 3.8740001
-0.40703198 -1.1386137 3.8780003
-0.39970493 -1.1345909 3.8765001
-0.32557836 -1.1356369 3.8760002
-0.31322476 -1.1365584 3.8710003
-0.25594938 -1.1365584 3.8710003
-0.24917558 -1.1311495 3.8770001
-0.50385988 -1.124269 3.8780003
-0.49310043 -1.124269 3.8780003
-0.47340536 -1.1253031 3.8733337
-0.46345291 -1.1291072 3.8700001
-0.4061923 -1.1255285 3.8700001
-0.39944717 -1.1231093 3.8740001
-0.33539474 -1.1245589 3.8790002
-0.32296687 -1.1253031 3.8733337
-0.24930412 -1.1245589 3.8790002
-0.50359911 -1.1165205 3.8760002
-0.47461951 -1.1158004 3.8735003
2.093262 -1.1768984 3.8860002
-0.39344668 -1.1444104 3.8855002
-0.35286143 -1.1460495 3.8870003
-0.34301054 -1.1439681 3.8840003
-0.24477285 -1.1448694 3.8830001
-0.21373564 -1.1441131 3.8845
-0.20652467 -1.1439662 3.8840003
-0.19939253 -1.1442616 3.8850002
-0.51567912 -1.1337754 3.8860002
-0.50770688 -1.1392009 3.8800001
-0.39319354 -1.1329001 3.8830001
-0.35406083 -1.1340672 3.8870001
-0.34283391 -1.1326084 3.8820002
-0.33552444 -1.1357597 3.8805003
-0.24584278 -1.1359047 3.881
-0.20679054 -1.1346507 3.8890002
-0.19959782 -1.1346507 3.8890002
-0.18521239 -1.1346507 3.8890002
-0.17437756 -1.1343589 3.888
-0.52313542 -1.1271681 3.8880002
-0.51554644 -1.1262983 3.8850002
-0.48617867 -1.1248488 3.8800001
-0.39329481 -1.1260084 3.8840003
-0.35028416 -1.1262983 3.8850002
-0.3426573 -1.1248488 3.8800001
-0.24237959 -1.1257185 3.8830001
2.0898325 -1.1862185 3.8930001
-0.58185709 -1.1438986 3.8960001
-0.38670781 -1.1421371 3.8900001
-0.37610829 -1.1427243 3.8920002
-0.36531183 -1.1427243 3.8920002
-0.35792956 -1.1421371 3.8900001
-0.23562196 -1.1421371 3.8900001
-0.22488883 -1.1424307 3.8910003
-0.19250406 -1.1424307 3.8910003
-0.18549815 -1.143605 3.8950002
-0.17829433 -1.143605 3.8950002
-0.58508754 -1.1359636 3.8935001
-0.57420897 -1.1358178 3.8930001
-0.56788272 -1.130357 3.8990002
-0.54624909 -1.130357 3.8990002
-0.53141749 -1.136693 3.8960001
-0.52353907 -1.1352342 3.8910003
-0.38670781 -1.1349424 3.8900001
-0.37620494 -1.1358178 3.8930001
-0.36531183 -1.1355259 3.8920002
-0.23568253 -1.1352342 3.8910003
-0.22494665 -1.1355259 3.8920002
-0.21403827 -1.1349424 3.8900001
-0.19245458 -1.1349424 3.8900001
-0.16384463 -1.1361095 3.8940003
-0.58626139 -1.1263143 3.8933334
-0.57391399 -1.1280378 3.8910003
-0.53488481 -1.1291974 3.895
-0.3868072 -1.1280378 3.8910003
-0.37620494 -1.1286176 3.8930001
-0.36531183 -1.1283277 3.8920002
-0.35792956 -1.1277479 3.8900001
-0.23568253 -1.1280378 3.8910003
2.0941272 -1.1814412 3.9010003
-0.18587914 -1.1531725 3.9030001
-0.17879786 -1.1540589 3.9060001
-0.66315567 -1.1401941 3.9080002
-0.59810501 -1.147422 3.9080002
-0.58981878 -1.1453667 3.9010003
-0.57538897 -1.1453667 3.9010003
-0.53223592 -1.1456603 3.9020002
-0.17131014 -1.1450731 3.9000001
-0.16430748 -1.1465411 3.9050002
-0.67004043 -1.1359985 3.9060001
-0.66298598 -1.1326764 3.9070003
-0.60548776 -1.1332562 3.9090002
-0.59741628 -1.1352719 3.9035001
-0.56521833 -1.1358535 3.9055002
-0.55445397 -1.1323864 3.9060001
-0.54694963 -1.1390271 3.9040003
-0.53917617 -1.1378601 3.9000001
-0.15688403 -1.1378601 3.9000001
-0.6795187 -1.1506517 3.9190001
-0.62325758 -1.1542047 3.9146671
-0.61389303 -1.153538 3.9165001
-0.60664946 -1.153538 3.9165001
-0.17188118 -1.1561271 3.9130001
-0.16477031 -1.1570135 3.9160001
-0.15764834 -1.1578999 3.9190001
-0.68659163 -1.1431117 3.9180002
-0.67485887 -1.1452724 3.9130001
-0.66434354 -1.1494772 3.9150002
-0.6533975 -1.1457114 3.9145002
-0.6429494 -1.1464403 3.9170003
-0.63554263 -1.1461477 3.9160004
-0.62572652 -1.14465 3.9150002
-0.61365789 -1.1422365 3.9150002
-0.60610729 -1.1416529 3.9130001
-0.57006747 -1.1491836 3.9140003
-0.56268471 -1.1416529 3.9130001
-0.55544758 -1.1416529 3.9130001
-0.54459381 -1.14889 3.9130001
-0.15382588 -1.1491836 3.914
-0.14289625 -1.1413611 3.9120002
-0.68641639 -1.1355754 3.9170003
-0.67830497 -1.1341258 3.9120002
-0.65322876 -1.1345608 3.9135003
-0.62404239 -1.1341259 3.9120002
-0.61287421 -1.1335461 3.9100001
-0.1541211 -1.1658913 3.9215002
-0.68781835 -1.1524132 3.9250002
-0.56383508 -1.1512389 3.9210002
-0.55700904 -1.1557484 3.9240003
-0.15051527 -1.1587862 3.9220002
-0.14333458 -1.1521196 3.9240003
-0.69472343 -1.1445705 3.9230001
-0.7166729 -1.1376048 3.9240003
-0.70569724 -1.1374599 3.9235001
-0.69454634 -1.137025 3.9220002
-0.64360601 -1.1367351 3.9210002
-0.63619179 -1.1364452 3.9200001
2.1034963 -1.2053742 3.9320002
2.1034963 -1.1944649 3.9320002
-0.14360854 -1.1652292 3.9315002
-0.71558905 -1.1562302 3.9380002
-0.70430523 -1.155643 3.9360001
-0.69631726 -1.1544685 3.9320002
-0.13635455 -1.1544685 3.9320002
-0.12924646 -1.1559366 3.9370003
-0.73398286 -1.1419535 3.9390001
-0.72614419 -1.1483634 3.9360001
-0.71440744 -1.1470504 3.9315002
-0.70323163 -1.1466128 3.9300003
-0.1367707 -1.1725807 3.9440002
-0.1296404 -1.1740673 3.9490001
-0.77197349 -1.1661726 3.9470003
-0.70663148 -1.1667635 3.9490001
-0.69791108 -1.1644 3.9410002
-0.13666666 -1.1644 3.9410002
-0.12950909 -1.1655817 3.9450002
-0.78687239 -1.1556613 3.9485002
-0.77947092 -1.1555145 3.9480002
-0.74277353 -1.1552236 3.947
-0.73500764 -1.1544924 3.9445
-0.72706664 -1.157111 3.9410002
-0.12224378 -1.1585791 3.9460001
-0.12249161 -1.1755538 3.9540002
-0.11526607 -1.1764457 3.9570003
-0.10800215 -1.1770403 3.9590001
-0.76573902 -1.1641421 3.9525001
-0.75486928 -1.1642904 3.9530001
-0.74409086 -1.1682409 3.9540002
-0.7367779 -1.1682409 3.9540002
-0.72599208 -1.1685363 3.9550002
-0.71447754 -1.16765 3.9520001
-0.12242965 -1.16765 3.9520001
-0.11523694 -1.1688318 3.9560001
-0.10545415 -1.1636616 3.9550002
-0.7727558 -1.1563926 3.9510002
-0.76583588 -1.1533233 3.9530001
-0.7546792 -1.1530316 3.9520001
-0.11506216 -1.1597536 3.9500003
-0.12270846 -1.1849608 3.9610002
-0.11546998 -1.1858584 3.9640002
-0.10819311 -1.1864567 3.9660001
-0.093593597 -1.1800134 3.9690001
-0.10078169 -1.1745658 3.9630003
-0.093522854 -1.1717864 3.9660001
-0.086209461 -1.1720818 3.9670002
-0.078912251 -1.1726727 3.9690001
-0.079111069 -1.1903456 3.9790001
-0.10098513 -1.1879524 3.9710002
-0.093735084 -1.189149 3.9750001
-0.086339846 -1.1848795 3.973
-0.0789719 -1.1809053 3.9720001
-0.071661741 -1.17415 3.9740002
-0.064392731 -1.1756274 3.9790001
-0.075555176 -1.1959763 3.9855003
-0.064554565 -1.1933372 3.9890001
-0.071769938 -1.1832838 3.9800003
-0.064522199 -1.185365 3.9870002
-0.82879436 -1.1773701 4.0100002
-1.6284215 -1.4026583 4.5210004
2.0149438 -1.5181085 4.592
2.0160408 -1.5061872 4.5945005
1.389955 -1.5700125 4.7490001
1.3987384 -1.5787957 4.7490001
1.3741224 -1.5851877 4.7550001
1.3829168 -1.5807904 4.7550001
1.3959593 -1.5850186 4.7545004
1.4087071 -1.5801255 4.7530003
1.3747003 -1.5726572 4.7570004
1.3820443 -1.5710043 4.7520003
1.3990328 -1.570343 4.75
1.4098927 -1.5726572 4.7570004
1.3679122 -1.5925934 4.7640004
1.3934673 -1.5915905 4.7610002
1.3673379 -1.5831175 4.7620001
1.3670508 -1.5739796 4.7610002
1.9045883 -1.6232541 4.829
1.9041939 -1.6139885 4.8280001
1.9049827 -1.6325233 4.8300004
1.9151046 -1.6335373 4.8330002
1.9147084 -1.6242625 4.8320003
1.9151046 -1.61566 4.8330002
1.9288205 -1.6375933 4.8450003
1.9268299 -1.6269517 4.8400002
1.9058635 -1.6454629 4.855
1.9042933 -1.6306493 4.8510003
1.9058704 -1.6487471 4.8780003
1.9035262 -1.6377083 4.8720002
1.9092921 -1.6686441 4.9100003
1.9092921 -1.6595631 4.9100003
1.5721763 -1.6771402 4.9350004
1.9110472 -1.6781597 4.9380002
1.5624156 -1.6673369 4.9330001
1.9102732 -1.6683509 4.9360003
1.5750436 -1.6710548 4.9440002
1.9073067 -1.6920763 4.9520001
1.5864304 -1.6825777 4.9510002
1.9088472 -1.6842769 4.9560003
1.5870713 -1.6740968 4.9530001
1.9096175 -1.6757869 4.9580002
1.1899818 -1.67334 4.9780002
1.191416 -1.6937927 4.9840002
1.1904598 -1.6832228 4.98
1.629548 -1.7081361 4.9990001
1.1580192 -1.6988903 4.9990001
1.1848073 -1.697531 4.9950004
1.1570926 -1.6882927 4.9950004
1.1670313 -1.6893067 4.9980001
1.1763928 -1.6848538 4.9984999
1.1845702 -1.6879547 4.9940004
1.1663308 -1.6790545 4.9950004
1.1838585 -1.6777098 4.9910002
1.1684324 -1.7005895 5.0040002
1.1779226 -1.7009294 5.0050001
1.3812952 -1.6913347 5.0040002
1.3913838 -1.6923487 5.0070004
1.3709435 -1.6899827 5
1.374508 -1.7036482 5.013
1.3854358 -1.7056873 5.0190001
1.3941627 -1.7050076 5.0170002
1.8265314 -1.8810548 5.3600001
1.8268722 -1.8714906 5.3610001
1.8200073 -1.8845642 5.3700004
1.8200073 -1.8746324 5.3700004
1.8154687 -1.8901793 5.3860002
1.8147945 -1.8795197 5.3840003
1.8095299 -1.8943906 5.3980002
1.7995462 -1.884407 5.3980002
1.8075186 -1.8823124 5.3920002
1.8012131 -1.8961453 5.4030004
1.8042135 -1.9093133 5.4120002
1.7995083 -1.914958 5.4280005
1.7767637 -1.9664903 5.5450001
1.7744726 -1.9753562 5.5700002
1.7701887 -1.9924313 5.5890002
1.7692385 -1.9810306 5.5860004
1.7686684 -1.9920244 5.6170001
0.36588332 -2.0484126 5.7760005
0.37650087 -2.0480578 5.7750001
0.36632675 -2.0401993 5.7830005
0.37702242 -2.0401993 5.7830005
0.3884556 -2.054796 5.7940001
0.35630754 -2.04408 5.7940001
0.91523176 -2.3129339 6.3240004
0.92736775 -2.3140311 6.3270001
0.93921793 -2.3143969 6.3280001
