# .PCD v0.7 - Point Cloud Data file format
VERSION 0.7
FIELDS x y z
SIZE 4 4 4
TYPE F F F
COUNT 1 1 1
WIDTH 1020
HEIGHT 1
VIEWPOINT 0 0 0 1 0 0 0
POINTS 1020
DATA ascii
1.0880511 -0.063827246 1.6240001
1.0592053 -0.074183539 1.654
1.0551069 -0.08837384 1.6620001
1.0639946 -0.093769766 1.6760001
0.24633622 -0.24520931 2.0350001
0.29074869 -0.24746571 2.0350001
0.31558302 -0.24600971 2.0333335
0.27745494 -0.25283435 2.0480001
0.305188 -0.2522788 2.0435002
0.31482014 -0.25494373 2.0446668
0.23432477 -0.24755564 2.0434999
0.2878311 -0.24819535 2.0410001
0.30520502 -0.26146951 2.0563333
0.32083455 -0.2618086 2.059
0.35372457 -0.26299322 2.0583334
0.23694067 -0.25406891 2.0580001
0.24062996 -0.25394544 2.0570002
0.25965208 -0.25774989 2.0570002
0.26371267 -0.25800049 2.059
0.2745153 -0.25488439 2.0543334
0.29493135 -0.25510138 2.0510001
0.30466202 -0.25594306 2.0526669
0.32413208 -0.25569335 2.0557501
0.34664434 -0.2545262 2.0540001
0.35326648 -0.25631651 2.0556667
0.26263556 -0.26263511 2.0655
0.32734156 -0.26244438 2.0640001
0.33387262 -0.26308015 2.069
0.34850401 -0.26448482 2.0650001
0.35164079 -0.26587474 2.0610001
0.24534295 -0.25616685 2.0646667
0.25241083 -0.25431582 2.0600002
0.26804051 -0.25850171 2.0630002
0.27416003 -0.25887761 2.066
0.29813051 -0.25812578 2.0600002
0.30208707 -0.2582511 2.0610001
0.32956743 -0.25887761 2.066
-0.47737086 -0.20950745 2.069
0.24471481 -0.26390663 2.0755
0.25542262 -0.26118544 2.07675
0.26894999 -0.26320729 2.0700002
0.27317381 -0.26358876 2.0730002
0.3187201 -0.26703575 2.0700002
0.32493395 -0.2674228 2.073
0.33575991 -0.26669142 2.0747502
0.3453517 -0.26533666 2.0766666
0.36153054 -0.26563382 2.0740001
0.23878276 -0.25988004 2.0740001
0.24621683 -0.25962943 2.072
-0.69049454 -0.20263471 2.0770001
-0.71772987 -0.198889 2.0780001
0.30274335 -0.27385011 2.0830002
0.3270514 -0.27302331 2.0865002
0.33396345 -0.27236903 2.0815001
0.36344615 -0.27411488 2.085
0.23724873 -0.26357612 2.0830002
0.24390419 -0.26897082 2.085
0.25330275 -0.26486027 2.0830002
0.26466817 -0.26851928 2.0815001
0.27249849 -0.2686483 2.0825
0.30338728 -0.26871282 2.0830002
-0.48696399 -0.21503538 2.0855002
-0.47990885 -0.21446829 2.0800002
-0.71611965 -0.20529452 2.0845001
-0.69539255 -0.20588784 2.0839999
-0.71560431 -0.19936755 2.0830002
0.36507741 -0.28179523 2.0943334
0.37365264 -0.28242317 2.0990002
0.25669935 -0.27026084 2.095
0.31444335 -0.27187288 2.0925002
0.34576568 -0.27409193 2.0946667
0.3666918 -0.27767849 2.0925002
0.37311858 -0.27620375 2.0960002
0.2524626 -0.26987383 2.092
0.26020092 -0.26987383 2.092
0.34499228 -0.26961583 2.0900002
-0.48770958 -0.22009955 2.0970001
0.30702755 -0.28363413 2.1080003
0.23834535 -0.2733703 2.1040001
0.30853629 -0.27933726 2.105
0.31385291 -0.27498609 2.1015
-0.70658106 -0.21479101 2.1020002
-0.66476798 -0.21315283 2.1050003
0.37676787 -0.29456538 2.1164999
0.38095215 -0.29281414 2.118
0.23970474 -0.28079697 2.1160002
0.37596682 -0.28807849 2.112
0.26281288 -0.27649087 2.1130002
-0.71520066 -0.22209378 2.1160002
-0.72194916 -0.21694691 2.1166668
-0.7153697 -0.21627223 2.1165001
0.38501552 -0.29653963 2.1260002
0.23488286 -0.28205764 2.1255002
0.26418105 -0.28185859 2.1240001
-0.72379804 -0.22293346 2.1240001
-0.67202777 -0.2233533 2.128
-0.66840595 -0.22345825 2.1290002
-0.72081345 -0.21477298 2.1210001
-0.67713726 -0.21915978 2.1255002
-0.66662318 -0.21893637 2.1233337
-1.1201756 -0.19964498 2.1270001
-1.1174186 -0.19557308 2.1255002
-1.1054785 -0.19589512 2.1290002
-1.0975063 -0.19552706 2.125
-0.73054504 -0.22835712 2.138
-0.69200373 -0.2280367 2.1350002
-0.68475282 -0.22429793 2.1370001
-0.67802823 -0.22601357 2.1345
-0.6648311 -0.22424544 2.1365001
-0.65844363 -0.22013932 2.135
-0.72421193 -0.2118443 2.131
-0.71993262 -0.21174489 2.1300001
-0.68512034 -0.21982999 2.1320002
-0.66146153 -0.21982999 2.1320002
-1.1164889 -0.20039588 2.1350002
-1.1043016 -0.2003333 2.1343334
-1.1132096 -0.19621716 2.1325002
-0.68430197 -0.23339793 2.1480002
-0.68651378 -0.22883776 2.1425002
-0.67415237 -0.22867754 2.1410003
-0.66472197 -0.22685787 2.1424999
-1.1231412 -0.2077219 2.1426668
-1.1171013 -0.20617568 2.1437502
-1.1060227 -0.20533359 2.1453333
-1.0942905 -0.20536549 2.1456668
-1.087535 -0.20558882 2.148
-0.84952676 -0.23459318 2.1590002
-0.77529657 -0.23248798 2.158
-0.75413734 -0.23523356 2.1526668
-0.72740185 -0.23647921 2.158
-0.68379641 -0.23655844 2.1526668
-0.67751062 -0.23448452 2.158
-0.66584533 -0.2306001 2.1590002
-1.1148655 -0.21545546 2.1558573
-1.1040586 -0.21043961 2.1570001
-1.0940864 -0.21043961 2.1570001
-1.0881025 -0.21043961 2.1570001
-1.1149119 -0.20985425 2.151
-1.0845712 -0.20578025 2.1500001
-0.84749186 -0.23513646 2.164
-0.78017277 -0.23535378 2.1660001
-0.73296171 -0.2374388 2.1606667
-0.68170851 -0.2392493 2.165
-0.67014867 -0.23070692 2.1600001
-1.1116452 -0.21912718 2.164
-1.1058924 -0.21717942 2.1645002
-1.0957593 -0.21715458 2.1642501
-1.086827 -0.21352467 2.164
-1.068113 -0.20721592 2.1650002
-0.68533003 -0.24454558 2.1765003
-0.67913723 -0.24046488 2.1760001
-0.66675711 -0.24035437 2.1750002
-0.66583747 -0.23600574 2.1720002
-1.1048882 -0.22620599 2.1743336
-1.0939113 -0.22643155 2.1765001
-1.0891372 -0.22024104 2.1750002
-1.091652 -0.21993726 2.1720002
-1.0851016 -0.21379924 2.1776667
-1.0747395 -0.21398334 2.1768003
-0.79214364 -0.24179098 2.1880002
-0.78755665 -0.24364857 2.1865001
-0.68428159 -0.24763633 2.1860001
-0.67604333 -0.24262418 2.1833334
-1.0872191 -0.23362635 2.1873333
-1.0799536 -0.23380436 2.1890001
-0.79509872 -0.23741829 2.1850002
-0.78924733 -0.236875 2.1800001
-1.086612 -0.22541101 2.1861112
-1.0789667 -0.22145617 2.187
-1.0543126 -0.22300822 2.1890001
-1.0850683 -0.21701366 2.1830001
-1.0726528 -0.2173616 2.1865001
-0.6830346 -0.25068384 2.1950002
-0.80389446 -0.24289607 2.1980002
-0.79690045 -0.24512303 2.1936667
-0.67540586 -0.24606241 2.1900001
-1.0848268 -0.23803402 2.1906669
-1.0742725 -0.23349854 2.1915715
-1.0648011 -0.23519102 2.191143
-1.0547705 -0.23503436 2.1941669
-1.0488824 -0.23049052 2.1960001
-1.0806935 -0.22788805 2.1905003
-1.0751066 -0.22393888 2.1915002
-1.0647085 -0.22487222 2.192143
-1.0541191 -0.22783557 2.1900001
-1.0476882 -0.22414327 2.1935
-0.8035059 -0.25154042 2.2025001
-1.0610524 -0.24616675 2.2030001
-1.0579798 -0.24383537 2.2065001
-1.0489651 -0.24002609 2.2090001
-0.80499172 -0.24729833 2.2010002
-1.051748 -0.23926549 2.2020001
-1.0448639 -0.23343861 2.2046669
-0.81644267 -0.25302508 2.2154999
-0.79613304 -0.25718069 2.2160001
-1.0532806 -0.24680868 2.2112
-1.0453517 -0.24470226 2.2143333
-1.0413352 -0.23652798 2.2145
1.4619044 -0.43517631 2.2250001
1.4707954 -0.43537191 2.2260001
-1.0448027 -0.25631177 2.2262502
-1.0353227 -0.250332 2.2280002
-1.0296046 -0.25044435 2.2290001
-0.82310802 -0.25857335 2.2280002
-0.81898737 -0.25857335 2.2280002
-1.0429659 -0.24558632 2.2223334
-1.0365727 -0.24470453 2.2250001
-1.0289116 -0.24409661 2.2275
1.469314 -0.43615425 2.23
-0.826433 -0.2637552 2.237
-1.0349637 -0.2569364 2.2316668
-1.0260199 -0.25469765 2.2361667
-1.0165964 -0.25130573 2.2366669
-0.89103425 -0.25502372 2.233
-0.82339841 -0.26410893 2.24
-1.0156285 -0.25485787 2.2436666
-1.0159365 -0.26570514 2.2535558
-1.0133791 -0.25725073 2.2525001
-1.0107083 -0.26443511 2.2605
-1.0044683 -0.26435521 2.2633998
-1.6397904 -0.24234907 2.2690001
-1.6397904 -0.23815255 2.2690001
-0.99672014 -0.2720241 2.2715001
-1.6426812 -0.24698022 2.273
-1.639919 -0.24298991 2.2750001
-1.6391982 -0.23867734 2.2740002
-1.6442441 -0.24784949 2.2810001
-1.6453692 -0.2335415 2.2855
-1.6246097 -0.23601823 2.289
1.4064091 -0.47418761 2.2984002
-1.6500913 -0.2451261 2.2950001
-1.6486533 -0.24067158 2.2930002
-1.6486533 -0.23643066 2.2930002
1.4078897 -0.48066482 2.3050001
1.4016445 -0.47432321 2.3052502
1.413958 -0.475575 2.3010001
1.4209871 -0.47437257 2.3055
1.1678306 -0.46279231 2.3079998
1.1751165 -0.46712923 2.3083334
1.4034191 -0.46780786 2.3046668
1.4133781 -0.46828148 2.3070002
1.1682397 -0.45670471 2.306
1.1736736 -0.45731741 2.3055
1.4159784 -0.48590738 2.3147502
1.4023634 -0.47459725 2.3170002
1.434813 -0.47255591 2.3175001
1.4409311 -0.47031131 2.3170002
1.4534404 -0.47520429 2.31475
1.1241136 -0.46555236 2.3146667
1.1453375 -0.46495277 2.3147144
1.1545449 -0.46545461 2.3141668
1.1633627 -0.46580252 2.3128572
1.1852949 -0.46354833 2.3132002
1.1940489 -0.46435082 2.3140001
1.4194883 -0.46889043 2.3100002
1.4243771 -0.46909341 2.3110001
1.1550846 -0.45496958 2.3152502
1.1631479 -0.4547717 2.31425
1.1743947 -0.45284414 2.3153336
1.1827914 -0.45706055 2.3150001
1.1923838 -0.45745543 2.3170002
-1.6720877 -0.26589322 2.3156669
-1.6659092 -0.26033178 2.3170002
-1.6626861 -0.2537362 2.3155
1.3998883 -0.47306567 2.3200002
-1.6721349 -0.27277368 2.3256667
-1.6547056 -0.27536836 2.3233335
-1.6741697 -0.26773697 2.3255
-1.664849 -0.26581347 2.3275001
-1.6566098 -0.26983082 2.3250003
-1.6649717 -0.25557208 2.3256667
-1.654474 -0.25230446 2.322
-1.6473216 -0.25219581 2.3210001
1.2199655 -0.4700487 2.3370001
1.1034998 -0.46366584 2.3375001
-1.675256 -0.2704111 2.3300002
-1.6593874 -0.27998781 2.3380001
-1.6713053 -0.2640042 2.3305001
-1.66304 -0.26405945 2.3310001
-1.6590588 -0.26445365 2.3345001
-1.662328 -0.25748309 2.3300002
-1.658349 -0.25786987 2.3335001
1.3233299 -0.49746802 2.3440001
1.3827716 -0.48380837 2.3443334
1.2274309 -0.47125548 2.3430002
-1.6611617 -0.27379361 2.3405001
-1.6621833 -0.26781487 2.3450003
-1.6575966 -0.26500022 2.3456666
1.3338041 -0.49895364 2.3510001
1.3812203 -0.49088287 2.3540001
1.3806336 -0.48632246 2.3530002
-1.6663318 -0.28226316 2.3570001
-1.6649196 -0.27549076 2.355
-1.6597947 -0.27354461 2.3570001
1.3671241 -0.51034915 2.3635001
1.3767395 -0.51067299 2.365
1.3776121 -0.4934895 2.3665001
1.3830099 -0.49651417 2.3670001
-1.6730484 -0.29434437 2.3664999
-1.6669073 -0.29184592 2.3640001
-1.6742388 -0.28723049 2.362
-1.6669781 -0.28710887 2.3610001
-1.662184 -0.27867031 2.3635001
1.3727343 -0.50007534 2.3770001
1.3821081 -0.50028574 2.378
-1.6915214 -0.29747117 2.3740001
-1.6823879 -0.29521409 2.3735001
-1.6672833 -0.29345083 2.3770001
-1.6683891 -0.28695887 2.3742001
1.3629773 -0.5101524 2.3830001
1.3900045 -0.51036644 2.3840001
1.3674421 -0.50777882 2.3856668
1.3751549 -0.50684869 2.3822858
1.3855953 -0.50816 2.3840003
-1.6891967 -0.29822299 2.3800001
-1.6766016 -0.2987242 2.3840003
1.3940859 -0.50744283 2.391
-1.6810852 -0.31205773 2.4190001
-0.44253272 -0.41564465 2.4230001
-0.43661964 -0.41641659 2.4275002
-0.44210643 -0.42185992 2.4330001
-0.43625411 -0.42272687 2.4380002
-0.43414545 -0.41389942 2.4325001
-0.42498049 -0.41370869 2.4380002
-0.43391195 -0.40911567 2.4375
-0.4274112 -0.40936744 2.4390001
-1.6856215 -0.31598285 2.4320002
-0.44392449 -0.42811215 2.4430003
-0.43786457 -0.4288131 2.447
-0.42463416 -0.42010474 2.4490001
-0.44691604 -0.4129712 2.447
-0.42010474 -0.4155753 2.4490001
-0.44130558 -0.40970314 2.4410002
-0.43571889 -0.4357177 2.456167
-0.42654818 -0.43561995 2.4535003
-0.43475556 -0.4256745 2.4550002
-0.42489332 -0.42036206 2.4505
-1.6948452 -0.32558292 2.4535
-0.45648766 -0.43599519 2.4620001
-0.43161696 -0.43161696 2.4630001
-0.43214267 -0.42758182 2.4660001
-0.42706165 -0.42706165 2.4630001
-0.46343035 -0.44511843 2.47475
-0.46557429 -0.43812028 2.4740002
-0.50488669 -0.44968212 2.4873335
-0.47401345 -0.44646695 2.48225
-0.51064712 -0.44609579 2.493
-0.5039348 -0.44627473 2.494
-1.2868097 -0.39123631 2.4960001
-1.3213543 -0.39327401 2.5090001
-1.3125596 -0.39272541 2.5055001
-1.3014945 -0.39520049 2.5065002
-1.2950479 -0.39464819 2.503
-1.289903 -0.39680424 2.5020001
-0.57691503 -0.45851356 2.5105002
-0.7458787 -0.44675374 2.5140002
-0.73901254 -0.43642473 2.5170002
-1.3105596 -0.39886597 2.5150001
-0.74376982 -0.45420295 2.52525
-0.74203473 -0.4435122 2.5220001
-1.0313092 -0.4333134 2.526
-0.74632686 -0.43798524 2.526
-0.73989338 -0.43228418 2.5200002
-1.2794232 -0.41011649 2.5270002
-1.3318871 -0.4010863 2.529
-1.3245858 -0.40029332 2.5240002
-1.3131776 -0.40576369 2.529
-1.2991829 -0.4043197 2.5200002
-1.2742451 -0.40995419 2.526
-1.3188717 -0.39997613 2.5220001
-1.280803 -0.4214558 2.539
-1.272754 -0.42347175 2.5370002
-1.2663157 -0.42288432 2.5335002
-1.3063726 -0.41198286 2.5385001
-1.2864299 -0.41448829 2.5346668
-1.2767674 -0.41544676 2.5310001
-1.445159 -0.40736812 2.539
-1.4369805 -0.40704724 2.5370002
-1.4012384 -0.40219647 2.536
-1.3944783 -0.40227574 2.5365
-1.3849795 -0.40156209 2.5320001
-1.3792062 -0.40124488 2.5300002
-1.3272389 -0.4072077 2.5380001
-1.3194183 -0.40624502 2.5320001
-1.309535 -0.40608457 2.5310001
-1.2968529 -0.40651241 2.5336668
-1.3636348 -0.42311573 2.549
-1.3438538 -0.42518103 2.54725
-1.3059092 -0.42509755 2.5467501
-1.2962332 -0.42501408 2.5462501
-1.2871364 -0.42564568 2.5453334
-1.4456532 -0.41287547 2.5440001
-1.4359537 -0.4134706 2.5476665
-1.4272789 -0.41368696 2.549
-1.4131358 -0.41368696 2.549
-1.4056503 -0.4159224 2.5482502
-1.3951293 -0.41559553 2.5462501
-1.3840781 -0.41510633 2.5432501
-1.3749394 -0.415187 2.5437503
-1.365862 -0.41618919 2.5470002
-1.3545671 -0.41543278 2.5452499
-1.3445008 -0.41505155 2.5458
-1.3350861 -0.41596255 2.5485001
-1.3251408 -0.41344351 2.5475001
-1.3150377 -0.41612291 2.544667
-1.303543 -0.41595814 2.5436668
-1.2964206 -0.41490254 2.5420003
-1.433507 -0.40873191 2.5475001
-1.4245888 -0.40551186 2.5469999
-1.4149368 -0.4064568 2.5480001
-1.4062076 -0.40676427 2.5450001
-1.3947182 -0.40841103 2.5455
-1.3838825 -0.40665421 2.5443335
-1.3658009 -0.40585789 2.54425
-1.3557941 -0.40623006 2.5416667
-1.3463151 -0.40800992 2.5430002
-1.3361213 -0.40776926 2.5415001
-1.3342966 -0.42589006 2.5515003
-1.3240566 -0.42639095 2.5545001
-1.3154227 -0.42589068 2.5515001
-1.4628575 -0.41678002 2.5535002
-1.455325 -0.41721225 2.5513334
-1.4454784 -0.41889375 2.552
-1.4363196 -0.41897583 2.5525002
-1.4243784 -0.41775572 2.5522504
-1.4163264 -0.4162885 2.5505002
-1.3267004 -0.41864756 2.5505002
-1.4614254 -0.40929347 2.5510001
-1.4561362 -0.40913302 2.5500002
-1.4231226 -0.40913302 2.5500002
-1.4184064 -0.40913302 2.5500002
-1.4713161 -0.4202069 2.5600002
-1.4713161 -0.41310483 2.5600002
-1.7315207 -0.41522992 2.5880001
-1.7240653 -0.41936725 2.5840001
-1.7304313 -0.4232623 2.608
-1.7298498 -0.42494279 2.6035001
-1.7322245 -0.42730716 2.618
-1.7335477 -0.43732405 2.6200001
-1.7405787 -0.44764706 2.638
-1.7399188 -0.44260022 2.6370001
-1.7361602 -0.43495578 2.635
-1.7389894 -0.44605231 2.6430001
-1.7360696 -0.43677106 2.6460001
-1.7282392 -0.439715 2.6490002
-1.7343155 -0.45374006 2.6508
-1.7374964 -0.44652781 2.650667
-1.7288916 -0.44478217 2.6500001
-0.66239393 -0.60276598 2.8035002
-0.84837455 -0.86042958 3.2590001
-0.86565959 -0.85662568 3.256
-0.85675764 -0.85675716 3.2565
-0.84837455 -0.85440207 3.2590001
-0.88012958 -0.8620137 3.2650001
-0.87617141 -0.86410713 3.2615004
-0.84639561 -0.8645004 3.2630002
-0.8806687 -0.85649943 3.2670002
-0.8739571 -0.85282284 3.2645001
-0.84363937 -0.85571289 3.2640002
-0.83862907 -0.85676157 3.2680001
-0.86457008 -0.84646153 3.2632504
-0.85518861 -0.84613711 3.2620001
-0.88915378 -0.86491787 3.2760003
-0.84570712 -0.8699134 3.2720001
-0.83939892 -0.86359781 3.2710001
-0.88572085 -0.8554399 3.2745001
-0.90319753 -0.87587297 3.283
-0.89685231 -0.87257206 3.2820001
-0.84260666 -0.87601054 3.2835002
-0.90457308 -0.8680861 3.2880001
-0.8979454 -0.8645184 3.2860003
-0.83602428 -0.86333495 3.2815001
-0.89078224 -0.85436183 3.2820001
-0.91564369 -0.8760283 3.2950001
-0.91259301 -0.86688626 3.2950001
-0.90539843 -0.86279142 3.2910001
-0.92702651 -0.88426417 3.3030002
-0.92499143 -0.87408262 3.3030002
-0.92439389 -0.86633068 3.3045001
-0.8432852 -0.89226002 3.3100002
-0.94294101 -0.88467795 3.3160002
-0.93553674 -0.88347697 3.3115001
-0.84430426 -0.88414621 3.3140001
-0.94760203 -0.87396044 3.3180001
-0.93596053 -0.87468648 3.3130002
-0.95517653 -0.89371443 3.3230002
-0.95293647 -0.88534278 3.3223333
-0.95693523 -0.8739906 3.3220003
-0.96655822 -0.89564461 3.3340001
-0.96771783 -0.88746053 3.3380001
-0.85031515 -0.90627736 3.3620002
-0.85037386 -0.91928077 3.3870001
-1.4153457 -0.922912 3.4355001
-1.4037683 -0.92474258 3.4305
-1.3956742 -0.92568606 3.4340003
-1.4044845 -0.91569173 3.43225
-1.3962839 -0.91655898 3.4355001
-1.4264587 -0.92600095 3.447
-1.3941779 -0.92573416 3.4460001
-1.4629886 -0.93215561 3.4580002
-1.4557506 -0.93161649 3.4560001
-1.4455156 -0.93401736 3.457
-1.4344966 -0.93026865 3.4510002
-1.3914291 -0.93454194 3.4550002
-1.4621425 -0.9252246 3.4560001
-1.4533944 -0.92576003 3.4580002
-1.4361594 -0.92495692 3.4550002
-1.3914291 -0.92495692 3.4550002
-1.465104 -0.93990827 3.4630001
-1.4544466 -0.93922973 3.4605002
-1.4446369 -0.92629546 3.4600003
-1.3942593 -0.9439795 3.4780002
-1.3922549 -0.93619907 3.473
-1.3952615 -0.95431334 3.4805002
-1.3966054 -0.94347733 3.5000002
-1.4017928 -0.96322405 3.513
-1.4005957 -0.95266473 3.5100002
-1.4024447 -0.97142565 3.5310001
-1.4024447 -0.96489507 3.5310001
1.6294841 -1.2061136 3.5490003
1.636048 -1.2061136 3.5490003
1.6346062 -1.2009017 3.5530002
1.6348367 -1.1944985 3.5535002
-1.4050068 -0.97446388 3.5540001
1.5509862 -1.2634532 3.6580002
1.5460395 -1.2645301 3.6676667
1.5556501 -1.2604668 3.6690001
1.5433394 -1.2614974 3.6720002
1.5467341 -1.254706 3.6720002
1.5577701 -1.2553895 3.6740003
-1.4150769 -1.1247143 3.783
-1.4038384 -1.1241196 3.7810001
-1.4208242 -1.1194903 3.7890003
-1.4130701 -1.1188993 3.7870002
-1.4055091 -1.1149542 3.7855
-1.4297161 -1.1279846 3.7940001
-1.4230741 -1.1142442 3.7950001
-1.415309 -1.113657 3.7930002
-1.4449573 -1.133104 3.8033335
-1.4319772 -1.1227404 3.8000002
-1.4349918 -1.1180611 3.8080001
-0.48470414 -1.234287 3.8970003
-0.46444863 -1.2632291 3.9085002
-0.4063063 -1.2658721 3.9055004
-0.39572504 -1.2630676 3.9080002
-0.47535306 -1.2561611 3.9090002
-0.46426991 -1.2555184 3.9070001
-0.43175381 -1.2555184 3.9070003
-0.42420185 -1.2545544 3.9040003
-0.41368693 -1.2555184 3.9070001
-0.40305603 -1.2561611 3.9090002
-0.38136691 -1.2561611 3.9090002
-0.3740415 -1.2558398 3.9080002
-0.36681363 -1.2558398 3.9080002
-0.35601693 -1.2560005 3.9085002
-0.34521839 -1.2561611 3.9090002
-0.33424598 -1.2556791 3.9075003
-0.32344651 -1.2558398 3.9080002
-0.28015104 -1.2561611 3.9090002
-0.54014391 -1.2410665 3.9070003
-0.53291792 -1.2410665 3.9070003
-0.48582447 -1.2443609 3.9060001
-0.47486663 -1.2476534 3.9050002
-0.46286753 -1.2453519 3.9053335
-0.4340876 -1.2432638 3.9063337
-0.42441916 -1.2443609 3.9060001
-0.37385008 -1.247973 3.9060001
-0.36643818 -1.2473339 3.9040003
-0.38571995 -1.2730584 3.9165001
-0.52361512 -1.2664613 3.9185002
-0.49425012 -1.2654916 3.9155002
-0.47547466 -1.2637141 3.9100001
-0.45389608 -1.2640373 3.9110003
-0.44654846 -1.2637141 3.9100001
-0.38527721 -1.2643604 3.9120002
-0.37461576 -1.2650069 3.9140003
-0.36394322 -1.2656533 3.9160001
-0.35316938 -1.2659764 3.9170003
-0.34583658 -1.2656533 3.9160001
-0.33471692 -1.2646837 3.9130001
-0.32377756 -1.2643604 3.9120002
-0.31662324 -1.2646836 3.9130001
-0.30986053 -1.2666229 3.9190001
-0.28079605 -1.2662996 3.9180002
-0.27341008 -1.2656533 3.9160001
-0.26623538 -1.2659764 3.9170003
-0.55608642 -1.2552712 3.9175
-0.54459286 -1.2574465 3.9130001
-0.53373629 -1.2574465 3.9130001
-0.52466619 -1.2564254 3.9173336
-0.51979291 -1.2514875 3.9170003
-0.49068958 -1.2547902 3.9160004
-0.48270622 -1.2564825 3.9100001
-0.45401213 -1.2571251 3.9120002
-0.44689107 -1.2574465 3.9130001
-0.43942925 -1.2568039 3.9110003
-0.41070557 -1.2502095 3.9130001
-0.39592758 -1.2564825 3.9100001
-0.38879544 -1.2568039 3.9110003
-0.31638047 -1.2564825 3.9100001
-0.30580711 -1.2576072 3.9135003
-0.29468581 -1.2564825 3.9100001
-0.28745428 -1.2564825 3.9100001
-0.58499342 -1.2442429 3.9170003
-0.57434607 -1.2447195 3.9185002
-0.5632599 -1.2442429 3.9170003
-0.55558956 -1.2432899 3.9140003
-0.5454731 -1.2470535 3.9106667
-0.53346348 -1.2495705 3.9110003
-0.5262301 -1.242337 3.9110003
-0.51610243 -1.2440841 3.9165001
-0.45378 -1.2492509 3.9100001
-0.44677687 -1.24989 3.9120002
-0.4393169 -1.2492509 3.9100001
-0.38869601 -1.2492509 3.9100001
-0.37519002 -1.2741961 3.9200001
-0.36450082 -1.2748462 3.9220002
-0.35371038 -1.2751713 3.9230001
-0.34636647 -1.2748462 3.9220002
-0.33893979 -1.2741961 3.9200001
-0.31041399 -1.2761464 3.9260001
-0.57225221 -1.2625881 3.9290001
-0.56469786 -1.2655787 3.927
-0.51326811 -1.2641253 3.9225001
-0.50607789 -1.2642851 3.9230001
-0.49894947 -1.2609814 3.9240003
-0.30284399 -1.2675924 3.9220002
-0.29543948 -1.2669461 3.9200001
-0.28826296 -1.2672693 3.9210002
-0.25448442 -1.2651752 3.9220002
-0.59405226 -1.2553215 3.9290001
-0.58648688 -1.2546824 3.9270003
-0.57537299 -1.2542032 3.9255002
-0.56397891 -1.2530849 3.9220002
-0.51320267 -1.2530849 3.9220002
-0.50633591 -1.2540435 3.9250002
-0.49882233 -1.2534045 3.9230001
-0.60024762 -1.2458313 3.9220002
-0.59269148 -1.2451959 3.9200001
-0.5729804 -1.2714709 3.9340003
-0.30353892 -1.2777716 3.9310002
-0.29641926 -1.2784218 3.9330001
-0.28540063 -1.2779342 3.9315002
-0.25258189 -1.2774466 3.9300003
-0.2454382 -1.2780967 3.9320002
-0.23586178 -1.2738974 3.934
-0.59526187 -1.265159 3.9370003
-0.58738297 -1.2638736 3.9330001
-0.57996136 -1.2635522 3.9320002
-0.60193115 -1.2565994 3.9330001
-0.60905033 -1.2490077 3.9320002
-0.20619801 -1.28281 3.9465003
-0.58567727 -1.2753493 3.9460001
-0.61137378 -1.2610725 3.9470003
-0.60315549 -1.2664443 3.9410002
-0.61261296 -1.2709433 3.9550002
-0.6051451 -1.2779349 3.9540002
-0.59737861 -1.2769653 3.9510002
-0.614007 -1.2848326 3.9640002
-0.62149519 -1.2668235 3.9650002
-0.62321937 -1.2850453 3.9760001
-0.63089019 -1.2783344 3.9780002
-0.62259239 -1.2764063 3.9720001
-0.6542753 -1.2956494 3.9860003
-0.64706546 -1.2959745 3.9870002
-0.63953108 -1.2956494 3.9860003
-0.72467291 -1.2815478 3.9880002
-0.64001238 -1.2818692 3.9890001
-0.63168317 -1.2873076 3.9830003
-0.72430944 -1.2735331 3.9860001
-0.16809432 -1.3355186 3.9950001
-0.72558331 -1.2905397 3.993
-0.7148627 -1.2911861 3.9950001
-0.66297537 -1.2945545 3.9940002
-0.65526015 -1.2902164 3.9920001
-0.64787692 -1.2902164 3.9920001
-0.7148627 -1.2837973 3.9950001
-0.64451087 -1.2871666 3.9940002
-0.71450478 -1.2757696 3.9930003
-0.69321656 -1.2773671 3.9980001
-0.1363373 -1.3356143 4.002667
-0.12391665 -1.3371902 4
-0.1165769 -1.3341589 4.0020003
-0.72460169 -1.3028005 4.0080004
-0.71629417 -1.3011752 4.0030003
-0.68012488 -1.3028005 4.0080004
-0.67187285 -1.3011752 4.0030003
-0.73942733 -1.2953877 4.0080004
-0.70889062 -1.2937717 4.0030003
-0.68029457 -1.2957109 4.0090003
-0.67220855 -1.2944181 4.0050001
-0.73850489 -1.2863681 4.0030003
-0.70562696 -1.2871715 4.0055003
-0.69408351 -1.2863681 4.0030003
-0.68365973 -1.2839471 4.007
-0.67271209 -1.2879748 4.0080004
-0.6648013 -1.2870108 4.0050001
-0.65673745 -1.2857255 4.0010004
-0.70483744 -1.2783256 4.0010004
-0.14658554 -1.3452499 4.0130005
-0.11692646 -1.3492942 4.0140004
-0.10942072 -1.3408674 4.0110002
-0.73402351 -1.3063761 4.0190001
-0.69651097 -1.3057259 4.0170002
-0.68942463 -1.3063761 4.0190001
-0.7032395 -1.2970037 4.013
-0.69651097 -1.2982965 4.0170002
-0.68908155 -1.2982965 4.0170002
-0.68063396 -1.2889389 4.0110002
-0.1097208 -1.3519834 4.0220003
-0.1022821 -1.3445446 4.0220003
-0.75419676 -1.309139 4.0275002
-0.74293256 -1.3089764 4.0270004
-0.75382042 -1.2973179 4.0255003
-0.74944884 -1.2999125 4.0220003
-0.10248554 -1.3546726 4.0300002
-0.095149957 -1.3563533 4.0350003
-0.73002535 -1.3200203 4.0380001
-0.080502823 -1.3610593 4.0490003
-0.084100567 -1.3549676 4.0420003
-0.76140404 -1.3226355 4.046
-0.73932004 -1.3232893 4.0480003
-0.75485259 -1.32427 4.0510001
-0.74791378 -1.3252506 4.0540004
2.0580058 -1.6660032 4.3255005
2.0371995 -1.7376716 4.4370003
2.0500157 -1.7498127 4.447
2.0472496 -1.7392381 4.441
1.4080237 -1.8066424 4.6350002
1.4153737 -1.8050833 4.631
1.4242462 -1.805473 4.6320004
1.3656348 -1.8139242 4.6463337
1.4098464 -1.8003975 4.6410003
1.4187356 -1.8007854 4.6420002
1.3618574 -1.8050528 4.6530004
1.3704631 -1.8050528 4.6530004
1.9650407 -1.8825307 4.6960001
1.9654591 -1.8742445 4.697
1.9662961 -1.8663517 4.6990004
1.9628127 -1.8843869 4.7115002
1.8973203 -1.8929535 4.7220001
1.9064572 -1.8933544 4.723
1.9609421 -1.8953588 4.7280002
1.899731 -1.8866143 4.7280002
1.9088792 -1.8870134 4.7290001
1.9613569 -1.8870134 4.7290001
1.9559139 -1.9077278 4.737
1.9617717 -1.9049088 4.73
1.9559139 -1.8945862 4.737
1.9224914 -1.9005703 4.7410002
1.9249245 -1.8941959 4.7470002
1.9529074 -1.9133661 4.7510004
1.9013854 -1.9057817 4.7540002
1.9545517 -1.9061825 4.7550001
1.9017854 -1.8973882 4.7550001
1.9549627 -1.8977872 4.756
1.9454429 -1.9101914 4.7650003
-0.042151082 -1.7814378 4.7980003
1.9128963 -1.9262266 4.8050003
-0.13555002 -1.7844081 4.8060002
-0.14034671 -1.8066853 4.8180003
-0.086755067 -1.8040605 4.8110003
-0.07795421 -1.8063104 4.8170004
-0.14023019 -1.7962819 4.8140001
-0.086845227 -1.7970282 4.8160005
-0.086899325 -1.7892349 4.8190002
-0.14939702 -1.803911 4.8225002
-0.13170861 -1.8015058 4.8280001
-0.095971137 -1.8055947 4.8270001
-0.078051306 -1.7996402 4.8230004
-0.13181773 -1.8119352 4.8320003
-0.14972229 -1.7944329 4.8330002
1.8941493 -1.9613972 4.848
1.9023305 -1.960588 4.8460002
-0.11434501 -1.8272781 4.8490005
-0.15912054 -1.81756 4.8470001
1.8886826 -1.9650384 4.8570004
1.898447 -1.9568608 4.8590002
-0.12351669 -1.8302928 4.8570004
-0.12351669 -1.8213098 4.8570004
-0.15938316 -1.8115805 4.855
-0.12351669 -1.8123268 4.8570004
-0.10547457 -1.8155068 4.8535004
1.8925712 -1.9600827 4.8670001
-0.16863993 -1.8235598 4.8630004
-0.11462799 -1.8228098 4.8610001
-0.16884799 -1.8168044 4.8690004
-0.11474589 -1.815685 4.8660002
-0.17799933 -1.8363223 4.8730001
-0.22379486 -1.8423517 4.8890004
-0.17832808 -1.8306845 4.8820004
-0.17840114 -1.8224015 4.8840003
1.8951799 -1.9812216 4.8970003
-0.24232456 -1.8457432 4.8980002
-0.24237403 -1.8370593 4.8990002
-0.2330752 -1.8351843 4.8940001
-0.22393219 -1.8344344 4.8920002
-0.2148405 -1.8340594 4.8910003
-0.20579457 -1.8340594 4.8910003
-0.19678889 -1.8344344 4.8920002
-0.18766437 -1.8336844 4.8900003
-0.24232456 -1.8276254 4.8980002
-0.2330752 -1.8261329 4.8940001
-0.22397797 -1.8257598 4.8930001
-0.2148405 -1.8250135 4.8910003
-0.20583665 -1.8253866 4.8920002
-0.19678889 -1.8253866 4.8920002
-0.18766437 -1.8246404 4.8900003
-0.27918559 -1.8408091 4.9090004
-0.26097402 -1.8495115 4.9080005
-0.25179401 -1.8487579 4.9060001
-0.28826481 -1.8317299 4.9090004
-0.27901497 -1.8306105 4.9060001
-0.26537791 -1.8394966 4.9055004
-0.25169137 -1.8389342 4.9040003
-0.26518905 -1.829118 4.9020004
-0.25153738 -1.8287449 4.901
1.1024235 -1.9434477 4.9160004
1.1106113 -1.9418664 4.9120002
1.1121941 -1.935536 4.9190001
-0.2887933 -1.8532798 4.9180002
-0.27495509 -1.8519609 4.9145002
-0.29782858 -1.843809 4.9170003
-0.28844097 -1.8419341 4.9120002
-0.29770744 -1.8339688 4.9150004
1.0957779 -1.9569088 4.927
1.1033206 -1.9541286 4.9200001
1.0946659 -1.9458197 4.9220004
1.1222036 -1.946215 4.9230003
-0.31653076 -1.8559177 4.9250002
-0.30729711 -1.8551641 4.9230003
-0.29807088 -1.8544104 4.921
-0.31659502 -1.8471839 4.9260001
-0.30729711 -1.846059 4.9230003
-0.34413642 -1.8391926 4.9290004
-0.33502021 -1.8391926 4.9290004
-0.32577178 -1.8384464 4.927
-0.31640223 -1.8369539 4.9230003
-0.30717227 -1.8362076 4.921
1.1349854 -1.9525404 4.9390001
1.124939 -1.9418317 4.9350004
-0.35389763 -1.8516837 4.9380002
-0.34455535 -1.8505588 4.9350004
-0.33536008 -1.8501838 4.934
-0.32610238 -1.8585556 4.9320002
-0.36295697 -1.8421777 4.9370003
-0.35346761 -1.8403121 4.9320002
-0.32597014 -1.8486838 4.9300003
-0.34532335 -1.8638313 4.9460001
-0.33590382 -1.862324 4.9420004
-0.37284163 -1.8550587 4.947
-0.36325103 -1.8528087 4.9410005
-0.37269089 -1.8451629 4.9450002
-0.38276327 -1.8679764 4.9570003
-0.37351993 -1.8675996 4.9560003
-0.36413324 -1.8664691 4.9530001
-0.35482931 -1.8657155 4.9510002
-0.38237721 -1.8569336 4.9520001
-0.38222277 -1.8470286 4.9500003
-0.43874264 -1.8629334 4.9680004
-0.42955431 -1.8629334 4.9680004
-0.39240566 -1.8610585 4.9630003
-0.43838936 -1.8522525 4.9640002
-0.42474395 -1.8528122 4.9655004
-0.40198931 -1.853745 4.9680004
-0.39216846 -1.85076 4.96
-0.44820145 -1.8640583 4.9710002
-0.42087367 -1.8651832 4.9740005
-0.41175699 -1.8655583 4.9750004
-0.40231299 -1.8644333 4.9720001
-0.4481113 -1.8544914 4.9700003
-0.41134319 -1.8544914 4.9700003
1.8999498 -2.0434296 5.0050001
1.8595183 -2.0788341 5.046
1.8545856 -2.0837779 5.0580001
1.8575189 -2.077704 5.0660005
1.1857113 -2.0356667 5.0780001
1.1770145 -2.0462666 5.0810003
1.1875793 -2.0482802 5.0860004
1.1976919 -2.0494885 5.0890002
1.1967505 -2.0384729 5.085
1.8438548 -2.1035526 5.1060004
1.211848 -2.0669923 5.1090002
1.2104248 -2.0551267 5.1030002
1.2097132 -2.044486 5.1000004
1.847466 -2.0982103 5.1160002
1.2232095 -2.0607648 5.1170001
1.840878 -2.1014915 5.1240001
1.2722671 -2.0825377 5.1240001
1.2246437 -2.0726564 5.1230001
1.2632831 -2.0738699 5.1260004
1.2725154 -2.0734653 5.1250005
1.2827445 -2.0746791 5.1280003
1.2350824 -2.0647922 5.1270003
1.2635295 -2.0647922 5.1270003
1.2727636 -2.0643895 5.1260004
1.2827445 -2.0651948 5.1280003
1.8251244 -2.1051826 5.1330004
1.8339031 -2.1043622 5.131
1.2839953 -2.0861955 5.1330004
1.235805 -2.0754883 5.1300001
1.2457784 -2.0762975 5.1320004
1.2547809 -2.0754883 5.1300001
1.2947487 -2.0787249 5.138
1.245293 -2.0660005 5.1300001
1.2550255 -2.0664032 5.131
1.2942446 -2.0684168 5.1360002
1.2962607 -2.0906663 5.1440001
1.3065361 -2.0918856 5.1470003
1.3165668 -2.0926983 5.1490002
1.3260899 -2.0926983 5.1490002
1.335613 -2.0926983 5.1490002
1.3055207 -2.0807478 5.1430001
1.3165668 -2.0831754 5.1490002
1.346181 -2.1038547 5.1530004
1.347226 -2.0959499 5.1570001
1.326605 -2.0839844 5.151
1.3369099 -2.0851982 5.1540003
1.3592632 -2.1045864 5.1665001
1.369746 -2.1107953 5.1700001
1.3705409 -2.1024528 5.1730003
1.3817091 -2.1048913 5.1790004
-0.92031926 -2.0614159 5.3650002
-0.92083389 -2.0526404 5.368
-0.84650564 -2.1149998 5.4650002
-0.82810491 -2.1348393 5.4770002
-0.83792853 -2.1239338 5.4750004
-0.8380816 -2.1141937 5.4760003
-0.8285585 -2.1258733 5.4800005
-0.8285585 -2.1157382 5.4800005
-0.82006609 -2.1402962 5.4910002
-0.82051408 -2.1313045 5.4940004
-0.8118279 -2.1453633 5.5040002
-0.80223083 -2.1469226 5.5080004
-0.81241792 -2.1367354 5.5080004
-0.79391319 -2.1622009 5.5210004
-0.79376936 -2.1515999 5.5200005
-0.79448837 -2.1433303 5.5250001
-0.78526354 -2.1665089 5.5320001
-0.78526354 -2.1562774 5.5320001
-0.77643305 -2.1704252 5.5420003
-0.77671325 -2.1609547 5.5440001
-0.76728916 -2.1735582 5.5500002
-0.76756561 -2.164073 5.552
-0.75879759 -2.1889381 5.5630002
-0.75893402 -2.1790411 5.5640001
-0.75025797 -2.1940534 5.5760002
-0.75066167 -2.1849155 5.5790005
-0.75975239 -2.1710892 5.5700002
-0.74087405 -2.1968079 5.5830002
-0.74140489 -2.1880486 5.5870004
-0.73224938 -2.2019231 5.5960002
-0.72318959 -2.205858 5.6060004
-0.73277283 -2.1931398 5.6000004
-0.71345705 -2.2078252 5.6110001
-0.72396362 -2.1978393 5.6120005
-0.70520967 -2.2145145 5.6280003
1.7550482 -2.4069977 5.6400003
1.7559817 -2.3978412 5.6430001
-0.69726974 -2.2223842 5.6480002
-0.687675 -2.2251384 5.6550002
-0.67865312 -2.2403414 5.6670003
-0.66899735 -2.2431087 5.6740003
-0.65908355 -2.2450855 5.6790004
1.7359788 -2.5481009 5.8940001
1.7348008 -2.5354781 5.8900003
1.7312243 -2.5571797 5.9150004
1.7310454 -2.5731754 5.9520001
1.7359896 -2.5915647 5.9690003
1.7295736 -2.5874422 5.9850001
1.7310185 -2.6006823 5.9900002
1.7151377 -2.6213531 6.0120001
1.7268312 -2.6111023 6.0140004
1.7179906 -2.6145756 6.0220003
1.7111045 -2.6322536 6.0370002
1.7145057 -2.6262982 6.0490003
1.7075418 -2.6440263 6.0640001
1.7002428 -2.6501305 6.0780001
1.7114841 -2.6388893 6.0780001
1.7030402 -2.6432309 6.0880003
1.695393 -2.6601591 6.1010003
1.6967824 -2.651046 6.1060004
1.2545788 -2.6957655 6.2090001
1.5901591 -2.7231114 6.2190003
1.6016611 -2.7231114 6.2190003
1.2785748 -2.6979365 6.2140002
1.2434957 -2.6851468 6.2110004
1.2549829 -2.6851468 6.2110004
1.267082 -2.6864436 6.2140002
1.2791921 -2.6877406 6.2170005
1.6270164 -2.7385709 6.2280002
1.5689189 -2.7261765 6.2260003
1.5796723 -2.7248628 6.2230005
1.6270164 -2.7270522 6.2280002
1.6387982 -2.7274902 6.2290001
1.3844565 -2.7142255 6.2250004
1.3957454 -2.7137895 6.2240005
1.407935 -2.7150974 6.2270002
1.4429488 -2.7159696 6.2290001
1.3846788 -2.7031465 6.2260003
1.3950726 -2.7009757 6.2210002
1.4072567 -2.7022781 6.2240005
1.2913133 -2.6890376 6.2200003
1.6393244 -2.7398901 6.2310004
1.5594051 -2.7296796 6.2340002
1.4208195 -2.7177136 6.2330003
1.4325773 -2.7181497 6.2340002
1.5716908 -2.7194576 6.2370005
1.58348 -2.7198937 6.2380004
1.5947615 -2.7194576 6.2370005
1.4205916 -2.7057514 6.2320004
1.4330369 -2.7074883 6.2360001
1.444802 -2.7079225 6.2370005
1.5277508 -2.7349339 6.2460003
1.5383171 -2.7331824 6.2420001
1.549365 -2.7323067 6.2400002
1.5390564 -2.7229459 6.2450004
1.5503582 -2.7225099 6.2440004
1.5609059 -2.7207658 6.2400002
1.5287292 -2.725126 6.2500005
