# .PCD v0.7 - Point Cloud Data file format
VERSION 0.7
FIELDS x y z
SIZE 4 4 4
TYPE F F F
COUNT 1 1 1
WIDTH 886
HEIGHT 1
VIEWPOINT 0 0 0 1 0 0 0
POINTS 886
DATA ascii
1.637888 -0.60489243 3.7485001
1.6248888 -0.60521519 3.7505002
1.6318253 -0.60521519 3.7505002
1.5855513 -0.83403885 3.7975001
1.5844496 -0.82471019 3.7976668
1.5880173 -0.81594169 3.7950001
1.5880173 -0.80541432 3.7950001
1.5371139 -0.85043073 3.8080001
1.5445623 -0.85065407 3.8090003
1.5371139 -0.84338784 3.8080001
1.5441568 -0.84338784 3.8080001
1.5333906 -0.83623511 3.8075001
1.5737789 -0.8352468 3.803
-0.37161079 -0.82247508 3.8090003
1.5746065 -0.82512999 3.8050003
1.5656966 -0.81543028 3.8090003
1.5785419 -0.81478804 3.8060002
1.5830815 -0.81350356 3.8000002
1.5446305 -0.80658162 3.8005002
1.5586518 -0.80838555 3.8090003
1.5839146 -0.80689991 3.8020003
1.5461534 -0.79682136 3.8042502
1.5582427 -0.79408747 3.8080001
-0.39233261 -0.78642458 3.8050001
-0.39884517 -0.77836305 3.8000002
1.5409486 -0.90550452 3.8175001
-0.35464948 -0.85221738 3.8160002
-0.52009624 -0.82333875 3.8130002
-0.45028213 -0.82463431 3.8190002
-0.44321889 -0.82463431 3.8190002
-0.40062946 -0.82420248 3.8170002
-0.3934668 -0.82398653 3.8160002
-0.38610533 -0.82333875 3.8130002
-0.35464853 -0.82398653 3.8160002
-0.34406289 -0.82398653 3.8160002
-0.3370052 -0.82398653 3.8160002
-0.52077824 -0.81029558 3.8180001
-0.51371682 -0.817357 3.8180001
-0.40062946 -0.8171429 3.8170002
-0.3934668 -0.81692886 3.8160002
-0.38630787 -0.81671476 3.8150003
-0.37562561 -0.81650066 3.8140001
-0.36504459 -0.81650066 3.8140001
-0.35469547 -0.81703591 3.8165002
-0.34424323 -0.817357 3.8180001
-0.33727014 -0.8175711 3.8190002
-0.42875531 -0.80281347 3.8160002
-0.40036708 -0.8060258 3.8145003
-0.39315748 -0.8057093 3.8130002
-0.38625723 -0.8060258 3.8145003
-0.37577379 -0.80623662 3.8155003
-0.36504459 -0.80591965 3.8140001
-0.35573253 -0.80730635 3.8150003
-0.42875531 -0.79575574 3.8160002
-0.4003146 -0.79533869 3.8140001
-0.39305437 -0.79492164 3.8120003
-0.3862066 -0.79533869 3.8140001
-0.3725864 -0.79638135 3.8190002
-0.40010467 -0.7878713 3.8120003
-0.38610533 -0.78807801 3.8130002
2.0549395 -0.95401579 3.8280001
2.0271492 -0.94010156 3.8290002
2.0179572 -0.93911946 3.8250003
-0.43672666 -0.89643896 3.8240001
-0.42645222 -0.89714223 3.8270001
-0.41583514 -0.89714223 3.8270001
-0.33430424 -0.89679062 3.8255
-0.46519905 -0.88617539 3.8255
-0.45550683 -0.8844952 3.8233337
-0.44368309 -0.88559669 3.8230002
-0.43678379 -0.8859446 3.8245001
-0.42614645 -0.88588738 3.8242502
-0.41545486 -0.88571393 3.8235002
-0.33059597 -0.88571483 3.8235002
-0.40843669 -0.87522149 3.8240001
-0.3341727 -0.87522149 3.8240001
-0.40136418 -0.86814898 3.8240001
-0.39439479 -0.86130166 3.8250003
-0.33771172 -0.8646127 3.8240001
-0.37326932 -0.85445064 3.8260002
-0.3447842 -0.85400397 3.8240001
-0.56432658 -0.82614583 3.8260002
-0.51506233 -0.82657772 3.8280001
-0.4370693 -0.82636178 3.8270001
-0.40832987 -0.82549804 3.8230002
-0.33029336 -0.82485026 3.8200002
-0.3234821 -0.82549804 3.8230002
-0.31674251 -0.82636178 3.8270001
-0.51398593 -0.81072009 3.8200002
-0.50388038 -0.81505215 3.8237503
-0.45063585 -0.81821334 3.8220003
-0.44356707 -0.81821334 3.8220003
-0.4370122 -0.81564045 3.8265002
-0.42976654 -0.81178123 3.8250003
-0.40832987 -0.81489205 3.8230002
-0.34487438 -0.81178123 3.8250003
-0.3304663 -0.81821334 3.8220003
-0.32365134 -0.81885558 3.8250003
-0.35148865 -0.80365497 3.8200002
-0.37641162 -0.79347068 3.822
-0.36561885 -0.79658985 3.8200002
-0.51654238 -0.95675725 3.8390002
-0.50569487 -0.95638341 3.8375001
2.0384812 -0.95625877 3.8370001
2.046988 -0.95526195 3.8330002
-0.51627332 -0.94206572 3.8370001
-0.5044021 -0.94434935 3.8366668
-0.49485469 -0.94536662 3.8360002
-0.48531032 -0.94401956 3.8353336
-0.34568584 -0.94487834 3.8340001
-0.3389481 -0.94231123 3.8380003
2.0382156 -0.9454903 3.8365002
2.0450447 -0.94891489 3.8360002
2.0538106 -0.94804907 3.8325002
-0.52336985 -0.93496919 3.8370001
-0.51573509 -0.93399447 3.8330002
-0.50516593 -0.9341163 3.8335004
-0.49511269 -0.93521285 3.8380003
-0.48446509 -0.93521285 3.8380003
-0.47344714 -0.9344818 3.8350003
-0.46611109 -0.93399447 3.8330002
-0.33513492 -0.93448186 3.835
-0.28563574 -0.93496919 3.8370001
-0.27513427 -0.93545651 3.8390002
2.0135114 -0.93326348 3.8300002
2.0251956 -0.93375081 3.8320003
-0.58388036 -0.92462569 3.8382504
-0.49479017 -0.92396438 3.8355002
-0.46635431 -0.92738897 3.8350003
-0.45890221 -0.92666352 3.8320003
-0.33487272 -0.92666352 3.8320003
-0.31757018 -0.90658301 3.8370001
-0.53380632 -0.89913487 3.8355002
-0.52309704 -0.89901763 3.8350003
-0.51613873 -0.89925206 3.8360002
-0.50575936 -0.89972091 3.8380003
-0.48104119 -0.89995533 3.8390002
-0.47313851 -0.89488518 3.8325002
-0.32415903 -0.89453721 3.8310001
-0.31744605 -0.8955875 3.8355002
-0.32441288 -0.88460124 3.8340001
-0.4444955 -0.87659472 3.8300002
-0.43398339 -0.8768236 3.8310001
-0.42335522 -0.8768236 3.8310001
-0.41616112 -0.87659472 3.8300002
-0.32475132 -0.87842572 3.8380003
-0.40241379 -0.86332822 3.8340001
-0.33128768 -0.86630893 3.8315001
-0.38084257 -0.85556728 3.8310001
-0.50470603 -0.82700956 3.8300002
-0.353973 -1.0049987 3.8470001
-0.3256821 -1.0055212 3.8490002
-0.61043143 -0.99484313 3.8490002
-0.60331273 -0.99484313 3.8490002
-0.56045467 -0.99458462 3.8480003
-0.55305016 -0.99406773 3.8460002
-0.47468171 -0.99380922 3.8450003
-0.35369697 -0.99355078 3.8440001
-0.3470383 -0.99484313 3.8490002
-0.3256821 -0.99484313 3.8490002
-0.31848058 -0.99458462 3.8480003
-0.56038189 -0.98378193 3.8475003
-0.55319399 -0.9836536 3.8470001
-0.5456531 -0.98644125 3.8440001
-0.44612029 -0.98644125 3.8440001
-0.34676781 -0.98695451 3.8460002
-0.33627278 -0.98746777 3.8480003
-0.32559747 -0.98746777 3.8480003
-0.56401312 -0.973234 3.8480003
-0.55348158 -0.9734869 3.8490002
-0.545937 -0.97628289 3.8460002
-0.53471148 -0.97171646 3.842
-0.44606227 -0.97565055 3.8435001
-0.4364531 -0.97653794 3.8423336
-0.35332891 -0.97121066 3.8400002
-0.34658748 -0.97577703 3.8440001
-0.33596739 -0.97590399 3.8445001
-0.32538593 -0.97615826 3.8455002
-0.31856334 -0.9734869 3.8490002
-0.57453907 -0.96586603 3.8470001
-0.56393844 -0.96599162 3.8475003
-0.53533822 -0.9657405 3.8465004
-0.52377903 -0.96410853 3.8400002
-0.34658748 -0.96511281 3.8440001
-0.3360548 -0.96548945 3.8455002
-0.32534364 -0.96536392 3.8450003
-0.31848058 -0.96611708 3.8480003
-0.58402705 -0.95400828 3.8470001
-0.57409108 -0.95444953 3.8440003
-0.56382781 -0.95513165 3.84675
-0.53540683 -0.9551934 3.8470001
-0.52405185 -0.95395106 3.842
-0.34640715 -0.95750487 3.8420002
-0.33601063 -0.95469737 3.8450003
-0.32538593 -0.95482057 3.8455002
-0.31843919 -0.95531714 3.8475003
-0.29008842 -0.95213068 3.8490002
-0.28289616 -0.95188332 3.8480003
-0.27577928 -0.95188332 3.8480003
-0.63509989 -0.94464374 3.8475003
-0.62434435 -0.94452095 3.8470001
-0.61391056 -0.94488919 3.8485003
-0.59603912 -0.94476646 3.8480003
-0.58460408 -0.94353884 3.8430002
-0.57379234 -0.94329333 3.8420002
-0.56371808 -0.94427538 3.8460002
-0.55348158 -0.94501197 3.8490002
-0.5462209 -0.94476646 3.8480003
-0.53505892 -0.94390714 3.8445001
-0.52377903 -0.94280225 3.8400002
-0.51667696 -0.94990438 3.8400002
-0.50957489 -0.94990438 3.8400002
-0.33210912 -0.94304782 3.8410001
-0.32525903 -0.94378436 3.8440001
-0.3149212 -0.94476646 3.848
-0.30416775 -0.94452095 3.8470001
-0.29682106 -0.94378436 3.8440001
-0.28589675 -0.94292504 3.8405001
-0.27527761 -0.94304782 3.8410001
-0.26486236 -0.94390714 3.8445001
-0.63497633 -0.93378747 3.8467503
-0.62426317 -0.93372655 3.8465002
-0.61706889 -0.93360567 3.8460002
-0.60632074 -0.93704039 3.8455002
-0.59541953 -0.93667489 3.8440001
-0.58429891 -0.93594384 3.8410001
-0.57379234 -0.93618751 3.8420002
-0.56248468 -0.93470997 3.8456669
-0.55319399 -0.93384933 3.8470001
-0.545937 -0.93716222 3.8460002
-0.53478056 -0.93630934 3.8425002
-0.32508978 -0.93618751 3.8420002
-0.31359991 -0.93487239 3.8463335
-0.30408868 -0.93716222 3.8460002
-0.29658943 -0.93594384 3.8410001
-0.26479256 -0.936553 3.8435001
-0.60479432 -0.92703438 3.8433335
-0.59487736 -0.92516708 3.8405001
-0.57349366 -0.92859811 3.8400002
-0.5456531 -0.92601156 3.8440003
-0.53812331 -0.92883992 3.8410001
-0.47406441 -0.92859811 3.8400002
-0.54551119 -0.90089303 3.8430002
-0.49537069 -0.90018976 3.8400002
-0.48839575 -0.90042418 3.8410001
-0.3107973 -0.90397704 3.8410001
-0.30377242 -0.90421152 3.8420002
-0.47406441 -0.88598555 3.8400002
-0.31781846 -0.88598555 3.8400002
2.0765634 -1.1247308 3.8550003
2.0765634 -1.117601 3.8550003
-0.3407144 -1.0613878 3.8580003
-0.26936057 -1.0613878 3.8580003
-0.34419376 -1.0539792 3.8570004
-0.28370488 -1.0545256 3.8590002
-0.27635261 -1.0537058 3.8560002
-0.26579198 -1.0542524 3.8580003
-0.56205678 -1.0473884 3.8590002
-0.5549196 -1.0473884 3.8590002
-0.54393256 -1.0468456 3.8570004
-0.29421949 -1.0467098 3.8565001
-0.28341079 -1.0463027 3.8550003
-0.27628097 -1.0463027 3.8550003
-0.26572308 -1.0468456 3.8570004
-0.63301873 -1.0360115 3.8565001
-0.62564266 -1.0356089 3.855
-0.59474617 -1.0367975 3.8550003
-0.33314669 -1.0350707 3.8530002
-0.32602054 -1.0350707 3.8530002
-0.29534408 -1.0369754 3.8556669
-0.28355783 -1.0397121 3.8570001
-0.27649596 -1.0399816 3.8580003
-0.63293666 -1.0251791 3.8560002
-0.62548041 -1.0246474 3.8540001
-0.5757339 -1.0035237 3.8550003
-0.56830907 -1.0030031 3.8530002
-0.34367901 -1.0061088 3.8512502
-0.33314669 -1.0030031 3.8530002
-0.2974388 -1.006305 3.8520002
-0.66180646 -0.99003392 3.8580003
-0.65484077 -0.99029058 3.8590002
-0.63310081 -0.99691087 3.8570001
-0.62564272 -0.99639392 3.8550003
-0.61787111 -0.99536002 3.8510001
-0.5934782 -0.992697 3.8545003
-0.58673102 -0.99691081 3.8570004
-0.57633126 -0.99385917 3.8590002
-0.56860405 -0.99639392 3.8550003
-0.34009618 -0.99536002 3.8510001
-0.33297375 -0.99536002 3.8510001
-0.31152552 -0.99510157 3.8500001
-0.30448401 -0.99536002 3.8510001
-0.2977863 -0.99321306 3.8565001
-0.66163492 -0.98264378 3.8570001
-0.65467107 -0.98289853 3.8580003
-0.62596726 -0.98977733 3.8570001
-0.61455005 -0.98505855 3.8525002
-0.60378295 -0.98493117 3.8520002
-0.59489977 -0.98476499 3.8560002
-0.58301491 -0.98238903 3.8560002
-0.57588321 -0.98238903 3.8560002
-0.56830907 -0.98518962 3.8530002
-0.31528813 -0.9850595 3.8525002
-0.3050375 -0.98646533 3.8580003
-0.66146338 -0.97525734 3.8560002
-0.65450138 -0.97551024 3.8570001
-0.59060574 -0.9760161 3.8590002
-0.58256131 -0.97449857 3.8530002
-0.57513648 -0.97399276 3.8510001
-0.31201103 -0.97525734 3.8560002
-0.66407114 -0.96370411 3.8573334
-0.65441656 -0.96468538 3.8565001
-0.64515728 -0.96387148 3.8580005
-0.63342911 -0.96174163 3.8590002
-0.59029961 -0.96481091 3.8570004
-0.58210772 -0.96661925 3.8500001
-0.553913 -0.96712136 3.8520002
-0.54678869 -0.96712136 3.8520002
-0.31176829 -0.96737248 3.8530002
-0.30487937 -0.96456075 3.8560002
-0.27646011 -0.96493644 3.8575001
-0.67590201 -0.95410967 3.8570001
-0.66477096 -0.95349121 3.8545003
-0.65382266 -0.95312017 3.8530002
-0.64669651 -0.95312017 3.8530002
-0.6358422 -0.95287281 3.8520002
-0.62531811 -0.95312017 3.8530002
-0.61510658 -0.95386231 3.8560002
-0.59712338 -0.95361495 3.8550003
-0.55369729 -0.95606297 3.8505001
-0.54657578 -0.95606297 3.8505001
-0.311566 -0.95606297 3.8505001
-0.30440494 -0.95237809 3.8500001
-0.29728436 -0.95237809 3.8500001
-0.26530972 -0.95262545 3.8510003
-0.67572677 -0.94673061 3.8560002
-0.66468525 -0.94623959 3.8540001
-0.65348327 -0.945503 3.8510001
-0.64636081 -0.945503 3.8510001
-0.60346949 -0.94525748 3.8500001
-0.25469312 -0.94574851 3.8520002
-0.65348327 -0.93481934 3.8510001
-0.64619297 -0.93457663 3.8500001
-0.25581715 -1.1145041 3.8690002
2.0758753 -1.113928 3.8670001
-0.48480031 -1.1073483 3.8690002
-0.47764459 -1.1073483 3.8690002
-0.46333316 -1.1001927 3.8690002
-0.39882851 -1.1070621 3.8680003
-0.38462019 -1.1001927 3.8690002
-0.37746444 -1.1001927 3.8690002
-0.36305913 -1.1070621 3.8680003
-0.25581715 -1.1073483 3.8690002
2.0721176 -1.1047724 3.8600001
-0.29618794 -1.0733081 3.8666668
-0.28418273 -1.0741763 3.8655
-0.26515296 -1.0755068 3.8659999
-0.25578409 -1.0750091 3.8685002
-0.34577 -1.0670667 3.8613336
-0.29467726 -1.0626258 3.8625002
-0.28377837 -1.0619379 3.8600001
-0.27678263 -1.069631 3.8620002
-0.26603541 -1.065923 3.8615003
-0.25561878 -1.0635886 3.8660002
-0.64572114 -1.0535438 3.8685002
-0.63490641 -1.056985 3.8680003
-0.62433696 -1.0572582 3.8690002
-0.5954845 -1.0568483 3.8675003
-0.58407331 -1.0556186 3.8630002
-0.57350385 -1.055892 3.8640003
-0.56336766 -1.056985 3.8680003
-0.55635756 -1.0572582 3.8690002
-0.54506171 -1.0561652 3.8650002
-0.5340609 -1.0556186 3.8630002
-0.52664346 -1.0550722 3.8610003
-0.29460096 -1.0552088 3.8615003
-0.25561878 -1.0564384 3.8660002
-0.64389092 -1.0441614 3.8646667
-0.63408566 -1.0484741 3.8630002
-0.62694103 -1.0484741 3.8630002
-0.61598438 -1.0480669 3.8615003
-0.60550714 -1.0484741 3.8630002
-0.59479117 -1.0484741 3.8630002
-0.58377087 -1.0479312 3.8610003
-0.57648063 -1.0476598 3.8600001
-0.56934154 -1.0476598 3.8600001
-0.26596469 -1.0406556 3.8605003
-0.25565183 -1.0458479 3.8665001
-0.64497232 -1.0344524 3.8640003
-0.29129431 -1.0132753 3.8650002
-0.25542042 -1.0127509 3.8630002
-0.24482925 -1.0132753 3.8650002
-0.29114357 -1.0056063 3.8630002
-0.25535432 -1.0053459 3.8620002
-0.24463922 -1.0053461 3.8620002
-0.66606498 -0.99463087 3.8620002
-0.65501046 -0.99768627 3.8600001
-0.64451027 -0.99443793 3.8612502
-0.63359326 -0.99054718 3.8600001
-0.58361971 -0.99054718 3.8600001
-0.29099283 -0.99437428 3.8610003
-0.25538737 -0.99476016 3.8625002
-0.24459194 -0.99443793 3.8612504
-0.6698088 -0.9841724 3.8630002
-0.64488471 -0.98429978 3.8635001
-0.63408566 -0.9841724 3.8630002
-0.62645417 -0.98340809 3.8600001
-0.6698088 -0.97702777 3.8630002
-0.30519563 -0.97626901 3.8600001
-0.64089829 -0.96938103 3.8610003
-0.42865962 -1.1532557 3.8790002
-0.27082679 -1.1532557 3.8790002
-0.26358458 -1.1529584 3.8780003
-0.25634611 -1.1526611 3.8770001
-0.32096356 -1.145786 3.8780003
-0.28510171 -1.145786 3.8780003
-0.27427426 -1.1454906 3.8770003
-0.25627998 -1.1451951 3.8760002
2.0785594 -1.1261101 3.8720002
-0.49310043 -1.1170965 3.8780003
-0.48605335 -1.1173847 3.8790002
-0.39924097 -1.1153682 3.8720002
-0.34562251 -1.1156563 3.8730001
-0.33470303 -1.1150801 3.8710003
-0.32392251 -1.1149361 3.8705001
-0.24930412 -1.1137975 3.8790002
-0.52544427 -1.1064801 3.8785002
-0.51448482 -1.109638 3.8770001
-0.5070526 -1.1054813 3.875
-0.4970257 -1.1056303 3.8713334
-0.47073209 -1.1079208 3.8710003
-0.46357265 -1.1079208 3.8710003
-0.39207971 -1.1046282 3.8720002
-0.38531604 -1.1093518 3.8760002
-0.37432283 -1.1086364 3.8735003
-0.58649242 -1.095862 3.8790002
-0.575508 -1.0954382 3.8775001
-0.52896225 -1.0955795 3.8780003
-0.50744516 -1.0955795 3.8780003
-0.59305447 -1.0875652 3.8750002
-0.58558524 -1.0870038 3.8730001
-0.57461655 -1.0865829 3.8715
-0.23471341 -1.0839827 3.875
-0.22410674 -1.084681 3.8775001
-0.24525706 -1.075912 3.8717504
-0.23465283 -1.0729545 3.8740001
-0.22416499 -1.0742009 3.8785002
-0.21343303 -1.0743394 3.8790002
-0.24533603 -1.0655144 3.8730001
-0.23489511 -1.06689 3.8780003
-0.213378 -1.06689 3.8780003
-0.20615245 -1.0666149 3.8770001
-0.65696192 -1.0543617 3.8715003
-0.61376196 -1.0575315 3.8700001
-0.6066044 -1.0575315 3.8700001
-0.24549392 -1.0554497 3.8755002
-0.20601952 -1.0551778 3.8745003
-0.19523358 -1.0549737 3.8737502
-0.18449803 -1.055042 3.8740001
-0.65670741 -1.0432163 3.8700001
-0.65670741 -1.0360588 3.8700001
-0.25713953 -1.2065778 3.8890002
-0.24994682 -1.2065778 3.8890002
-0.48011369 -1.1921924 3.8890002
-0.43673268 -1.1951756 3.8870001
-0.32166708 -1.1950196 3.8865001
-0.28576338 -1.195172 3.8870001
-0.27871767 -1.1993852 3.8890002
-0.26433226 -1.1921924 3.8890002
-0.25704038 -1.195328 3.8875003
-0.24616043 -1.1948676 3.8860002
-0.22825123 -1.1915793 3.8870001
-0.50130481 -1.1840856 3.8860002
-0.37222296 -1.1849997 3.8890002
-0.35401115 -1.184238 3.8865004
-0.3217912 -1.184695 3.8880002
-0.31443849 -1.1840856 3.8860002
-0.30748853 -1.1849997 3.8890002
-0.25713953 -1.1849997 3.8890002
-0.24597132 -1.1831715 3.8830004
-0.22442369 -1.1831715 3.8830004
-0.43650797 -1.1765956 3.8850002
-0.37212726 -1.1775041 3.8880002
-0.35378295 -1.1762927 3.8840003
-0.3434521 -1.1706142 3.8890002
-0.3218326 -1.1740601 3.8885002
-0.31451941 -1.1736058 3.8870001
-0.30748853 -1.1706142 3.8890002
-0.24590798 -1.1756871 3.8820002
-0.22083473 -1.1759899 3.8830001
-0.51594454 -1.1631224 3.8880002
-0.50557655 -1.1661147 3.8820002
-0.43650797 -1.1694102 3.8850002
-0.42976469 -1.1634215 3.8890002
-0.37188798 -1.1659681 3.8855002
-0.36427936 -1.1610283 3.8810003
-0.35237566 -1.1636211 3.8816669
-0.34327549 -1.1628232 3.8870001
-0.32526249 -1.1626737 3.8865004
-0.31427667 -1.1619258 3.8840003
-0.30693507 -1.1613275 3.8820002
-0.29998696 -1.1622249 3.8850002
-0.25694117 -1.1625241 3.8860002
-0.2460342 -1.1655176 3.8840003
-0.23519796 -1.1616266 3.8830001
-0.22315216 -1.1636204 3.8816669
-0.21376315 -1.1658185 3.8850002
-0.51567912 -1.1553369 3.8860002
-0.42202866 -1.1547422 3.8840003
-0.41527244 -1.1559315 3.8880002
-0.40443459 -1.1557828 3.8875003
-0.39359859 -1.1556342 3.8870001
-0.38650897 -1.1559315 3.8880002
-0.37562698 -1.1556342 3.8870001
-0.36456093 -1.1547422 3.8840003
-0.354013 -1.1554855 3.8865001
-0.34327549 -1.1556342 3.8870001
-0.33617294 -1.1559315 3.8880002
-0.32505465 -1.1547422 3.8840003
-0.28539577 -1.1541476 3.8820002
-0.27828768 -1.1544449 3.8830001
-0.24593735 -1.1542963 3.8825002
-0.23544025 -1.1556342 3.8870001
-0.2245127 -1.1548909 3.8845003
-0.21365312 -1.1544449 3.8830001
-0.20652467 -1.1547422 3.8840003
-0.19944385 -1.1553369 3.8860002
-0.51601088 -1.145292 3.8885002
-0.50770688 -1.146377 3.8800001
-0.42159405 -1.146377 3.8800001
-0.41495201 -1.1478543 3.8850002
-0.4042781 -1.1481497 3.8860002
-0.38660839 -1.1490362 3.8890002
-0.37577146 -1.1488883 3.8885002
-0.36493638 -1.1487406 3.8880002
-0.33591354 -1.1478543 3.8850002
-0.32855898 -1.1472634 3.8830001
-0.23550083 -1.1487406 3.8880002
-0.22465765 -1.1484451 3.8870001
-0.21398325 -1.1202652 3.8890002
-0.18521239 -1.127458 3.8890002
-0.17440045 -1.127313 3.8885002
-0.60567546 -1.1125002 3.8870001
-0.59473795 -1.112214 3.8860002
-0.58403099 -1.1159525 3.8865004
-0.57512784 -1.1137503 3.8830001
-0.56562519 -1.1150929 3.8835001
-0.5544942 -1.1107829 3.8810003
-0.54421771 -1.11538 3.8845003
-0.53689504 -1.1150929 3.8835001
-0.52716011 -1.1159528 3.8823335
-0.51488292 -1.1176727 3.8800001
-0.39299104 -1.1179608 3.8810003
-0.38631016 -1.1194011 3.8860002
-0.37557819 -1.1195451 3.8865001
-0.36446708 -1.1185369 3.8830001
-0.35700941 -1.1176727 3.8800001
-0.24231717 -1.114659 3.8820002
-0.23531911 -1.1155221 3.8850002
-0.22456957 -1.1156663 3.8855002
-0.61661667 -1.1055955 3.8880002
-0.60551965 -1.1050267 3.8860002
-0.59443188 -1.104458 3.8840003
-0.58709723 -1.1041737 3.8830001
-0.57610261 -1.1037471 3.8815002
-0.56526107 -1.1036049 3.8810003
-0.5544942 -1.1036049 3.8810003
-0.54372734 -1.1036049 3.8810003
-0.53641117 -1.1033206 3.8800001
-0.52205902 -1.1033206 3.8800001
-0.51488292 -1.1033206 3.8800001
-0.64488214 -1.0903717 3.8850002
-0.62364709 -1.0981221 3.8870001
-0.61598229 -1.0972745 3.8840003
-0.60497379 -1.0968508 3.8825002
-0.59381968 -1.0961446 3.8800001
-0.56555235 -1.096992 3.8830001
-0.55517167 -1.094174 3.8857503
-0.54421771 -1.0938222 3.8845
-0.53641117 -1.0961446 3.8800001
-0.52205902 -1.0961446 3.8800001
-0.51501566 -1.096427 3.8810003
-0.63736856 -1.0898104 3.8830001
-0.62986231 -1.0892491 3.8810003
-0.21348804 -1.0853803 3.8800001
-0.20644492 -1.0860802 3.8825002
-0.20631197 -1.0746163 3.8800001
-0.47389382 -1.234288 3.8970003
-0.44529217 -1.2313139 3.8990002
-0.43796861 -1.2309982 3.8980002
-0.35515207 -1.2385252 3.8990002
-0.32270163 -1.2313139 3.8990002
-0.30444008 -1.2303666 3.8960001
-0.29370606 -1.2306824 3.8970001
-0.28649855 -1.2306824 3.8970001
-0.44494957 -1.223161 3.8960001
-0.43430683 -1.2236319 3.8975
-0.41623372 -1.2234749 3.8970001
-0.40500632 -1.2222191 3.8930001
-0.39471245 -1.2237889 3.8980002
-0.32605708 -1.223161 3.8960001
-0.31516674 -1.222847 3.8950002
-0.304088 -1.2217481 3.8915002
-0.29347995 -1.222533 3.8940003
-0.2863515 -1.222847 3.8950002
-0.24337831 -1.2241027 3.8990002
-0.2361671 -1.2241027 3.8990002
-0.48402238 -1.2145507 3.8915
-0.46632704 -1.2153311 3.8940003
-0.45523304 -1.2145507 3.8915
-0.43402684 -1.2156432 3.8950002
-0.42365855 -1.2168915 3.8990002
-0.4160201 -1.2156432 3.8950002
-0.38750309 -1.2165794 3.8980002
-0.33712405 -1.2168915 3.8990002
-0.32932052 -1.2147069 3.8920002
-0.28605744 -1.2143948 3.8910003
-0.27921936 -1.2159553 3.8960001
-0.26494399 -1.2165794 3.8980002
-0.2539022 -1.2154871 3.8945003
-0.24306621 -1.2153311 3.8940003
-0.2359854 -1.2159553 3.8960001
-0.48427159 -1.2043738 3.8935003
-0.47304258 -1.2068881 3.8900001
-0.43275222 -1.2058306 3.8943336
-0.42365855 -1.2060747 3.8990002
-0.41628712 -1.2056103 3.8975
-0.40503213 -1.2042941 3.8932502
-0.39430743 -1.2045262 3.8940001
-0.38362688 -1.2049154 3.8952501
-0.37308437 -1.2021607 3.8980002
-0.33703756 -1.2057655 3.8980002
-0.3291513 -1.2068881 3.8900001
-0.27413324 -1.2051098 3.8920002
-0.26453617 -1.2075086 3.8920002
-0.24281652 -1.2068881 3.8900001
-0.23580368 -1.2078189 3.8930001
-0.22520489 -1.2053027 3.8965001
-0.50246584 -1.1940317 3.8950002
-0.49488056 -1.193112 3.8920002
-0.48755699 -1.1928055 3.8910003
-0.42655048 -1.1932654 3.8925004
-0.38029373 -1.1949514 3.8980002
-0.3726058 -1.1934186 3.8930001
-0.36549956 -1.1937252 3.8940003
-0.35501403 -1.1947981 3.8975
-0.34424692 -1.1949514 3.8980002
-0.33686465 -1.1943383 3.8960001
-0.32919359 -1.1962495 3.8905001
-0.29317847 -1.1924989 3.8900001
-0.27519208 -1.1924989 3.8900001
-0.26440021 -1.1996936 3.8900001
-0.23562196 -1.1996936 3.8900001
-0.22123283 -1.1924989 3.8900001
-0.21431339 -1.1940317 3.8950002
-0.50940794 -1.1862185 3.8930001
-0.42649522 -1.1859138 3.8920002
-0.3803913 -1.1808355 3.8990002
-0.34389368 -1.1865232 3.8940003
-0.33669171 -1.1865232 3.8940003
-0.32932052 -1.1859138 3.8920002
-0.30083632 -1.1835289 3.8960001
-0.2937814 -1.187742 3.8980002
-0.28649855 -1.1874373 3.8970001
-0.27672374 -1.1843239 3.8946667
-0.26453617 -1.1859138 3.8920002
-0.2140933 -1.1856091 3.8910003
-0.20721592 -1.1874373 3.8970001
-0.52461547 -1.1736243 3.8990002
-0.51674074 -1.1721193 3.8940003
-0.50901538 -1.1781099 3.8900001
-0.43020672 -1.1754174 3.8930001
-0.4233869 -1.1764746 3.8965001
-0.38740367 -1.1730223 3.8970001
-0.3799035 -1.1721193 3.8940003
-0.34371704 -1.1787156 3.8920002
-0.33656204 -1.1752688 3.8925004
-0.32927823 -1.1749668 3.8915
-0.30416337 -1.1752651 3.8925002
-0.27201369 -1.179927 3.8960001
-0.26487601 -1.1766251 3.8970003
-0.25730485 -1.1749649 3.8915002
-0.21403827 -1.1781099 3.8900001
-0.20713615 -1.1761737 3.8955002
-0.52394271 -1.1649173 3.8940003
-0.42289793 -1.164319 3.8920002
-0.41623372 -1.1658148 3.8970001
-0.40537089 -1.1656651 3.8965001
-0.39420614 -1.1646181 3.8930001
-0.3868072 -1.1640198 3.8910003
-0.37951323 -1.1637207 3.8900001
-0.33634585 -1.1637207 3.8900001
-0.29340458 -1.1646181 3.8930001
-0.2863515 -1.1652164 3.8950002
-0.2755118 -1.165067 3.8945003
-0.26446819 -1.1640198 3.8910003
-0.2068437 -1.1637207 3.8900001
-0.19985443 -1.1649173 3.8940003
-0.52353907 -1.1568234 3.8910003
-0.19262774 -1.1539667 3.8935003
-0.5236063 -1.1461756 3.8915002
-0.55578005 -1.1205534 3.8900001
-0.21403827 -1.1277479 3.8900001
-0.20687029 -1.1242946 3.8905001
-0.19607753 -1.1242951 3.8905003
-0.61693382 -1.1133587 3.8900001
-0.48478508 -1.2676688 3.9073336
-0.43508965 -1.2655467 3.9045
-0.45366395 -1.2417017 3.9090002
-0.44620582 -1.2410665 3.9070003
-0.41746202 -1.2451568 3.9085002
-0.38364673 -1.2436875 3.9076669
-0.35560751 -1.2473339 3.9040003
-0.34486514 -1.2476534 3.9050002
-0.33403167 -1.2476534 3.9050002
-0.32328099 -1.2443618 3.9060001
-0.3161782 -1.2448401 3.9075003
-0.30875361 -1.2404311 3.9050002
-0.29438436 -1.247973 3.9060001
-0.28358394 -1.2481327 3.9065003
-0.27285153 -1.2449989 3.9080002
-0.26562366 -1.241384 3.9080002
-0.54389703 -1.2341563 3.9080002
-0.53278148 -1.2335246 3.9060001
-0.52596098 -1.234472 3.9090002
-0.49691501 -1.2341563 3.9080002
-0.46499738 -1.2349827 3.9030001
-0.45319971 -1.2332088 3.9050002
-0.43120128 -1.2322614 3.9020002
-0.42398453 -1.2322614 3.9020002
-0.41676778 -1.2322614 3.9020002
-0.40589017 -1.2321036 3.9015002
-0.39542127 -1.2332088 3.9050002
-0.38468722 -1.2335246 3.9060001
-0.37346721 -1.2358698 3.9020002
-0.36610967 -1.2353942 3.9005003
-0.35533422 -1.2319456 3.9010003
-0.34451187 -1.235553 3.9010003
-0.33497724 -1.2370731 3.9020002
-0.32999745 -1.2316298 3.9000001
-0.31565225 -1.2319456 3.9010003
-0.30137685 -1.2397958 3.9030001
-0.29400751 -1.2391605 3.9010003
-0.28679261 -1.2391605 3.9010003
-0.27731359 -1.2349834 3.9030001
-0.2653518 -1.232893 3.9040003
-0.2545211 -1.232893 3.9040003
-0.243628 -1.2325772 3.9030001
-0.2364094 -1.2325772 3.9030001
-0.22584018 -1.2339983 3.9075003
-0.55487978 -1.2200127 3.9090002
-0.54389703 -1.2269284 3.9080002
-0.53291792 -1.2266144 3.9070003
-0.50427186 -1.2200127 3.9090002
-0.49627927 -1.2253586 3.9030001
-0.46361589 -1.2248876 3.9015002
-0.45273551 -1.2247307 3.9010003
-0.42376721 -1.2244167 3.9000001
-0.38448933 -1.2256726 3.9040003
-0.37365866 -1.2256726 3.9040003
-0.36643818 -1.2256726 3.9040003
-0.35560751 -1.2256726 3.9040003
-0.3446002 -1.2250446 3.9020002
-0.33729696 -1.2247307 3.9010003
-0.27603912 -1.2250447 3.9020002
-0.26528382 -1.2253586 3.9030001
-0.25429338 -1.2245737 3.9005003
-0.22566679 -1.2258296 3.9045
-0.56182194 -1.2121624 3.9070003
-0.55417007 -1.2112316 3.9040003
-0.54372144 -1.2156982 3.9067502
-0.50414288 -1.2124727 3.9080002
-0.49627927 -1.2145307 3.9030001
-0.38058642 -1.2175158 3.9010003
-0.37365866 -1.2148438 3.9040003
-0.36690751 -1.2127829 3.9090002
-0.34477681 -1.2148418 3.9040003
-0.27229297 -1.2172037 3.9000001
-0.22552276 -1.2178279 3.9020002
-0.21491864 -1.2118522 3.9060001
-0.56536394 -1.2047822 3.9065003
-0.55402809 -1.2037028 3.9030001
-0.5435468 -1.2044737 3.9055004
-0.50362688 -1.2040112 3.9040003
-0.4958978 -1.2027775 3.9000001
-0.36653206 -1.2043196 3.9050002
-0.3446885 -1.2037028 3.9030001
-0.21469855 -1.2033944 3.9020002
-0.57612646 -1.1901797 3.9060001
-0.56514639 -1.1970973 3.9050002
-0.55438298 -1.1936376 3.9055004
-0.54396522 -1.1981702 3.9085002
-0.51465845 -1.1972506 3.9055002
-0.41655415 -1.1955645 3.9000001
-0.40640938 -1.1975572 3.9065003
-0.38809955 -1.1931787 3.9040003
-0.20400172 -1.196944 3.9045002
-0.57583141 -1.1823498 3.9040003
-0.56507361 -1.1861119 3.9045005
-0.51773608 -1.185202 3.9015002
-0.4145371 -1.1846546 3.9036667
-0.38429326 -1.1853516 3.9020002
-0.29408288 -1.1817441 3.9020002
-0.28671908 -1.1811384 3.9000001
-0.2002137 -1.1850486 3.9010003
-0.39501622 -1.1742263 3.9010003
-0.27597117 -1.1742263 3.901
-0.20016238 -1.1739253 3.9000001
-0.53223592 -1.1673106 3.9020002
-0.5054329 -1.3170241 3.9180002
-0.49818656 -1.3170241 3.9180002
-0.45482451 -1.310112 3.9190001
-0.51557994 -1.3043187 3.9125001
-0.49037635 -1.3046558 3.9135003
-0.45470846 -1.3025314 3.9180002
-0.44746211 -1.3025314 3.9180002
-0.54338574 -1.2743344 3.9130001
-0.51689273 -1.2744396 3.9133337
-0.50465888 -1.2715957 3.9120002
-0.49716932 -1.2709455 3.9100001
-0.54452282 -1.2645221 3.9125001
-0.53387272 -1.2650069 3.9140003
-0.27299115 -1.2564825 3.9100001
-0.26596352 -1.2574465 3.9130001
-0.25655341 -1.2537957 3.916667
-0.49818656 -1.2445606 3.9180002
-0.4106006 -1.2426547 3.9120002
-0.40331379 -1.2461135 3.9115002
-0.39602885 -1.2459538 3.9110003
-0.30557269 -1.2494106 3.9105
-0.26589555 -1.24989 3.9120002
-0.25500959 -1.2424958 3.9115002
-0.24418978 -1.2426547 3.9120002
-0.23689397 -1.242337 3.9110003
-0.22615853 -1.2429724 3.9130001
-0.59586108 -1.2369984 3.9170003
-0.58469468 -1.2363669 3.9150002
-0.5739063 -1.2365248 3.9155002
-0.56297231 -1.2363669 3.9150002
-0.55544758 -1.2357352 3.9130001
-0.51590526 -1.2363667 3.9150002
-0.50478786 -1.2357352 3.9130001
-0.56509644 -1.2236747 3.9130001
-0.55530566 -1.2281842 3.9120002
-0.5333271 -1.2203248 3.9100001
-0.52636468 -1.2245647 3.9120002
-0.50440091 -1.2275562 3.9100001
-0.36700135 -1.2203248 3.9100001
-0.35629112 -1.2207929 3.9115002
-0.56948489 -1.2130932 3.9100001
-0.46325177 -1.3207217 3.9290001
-0.45586902 -1.3203856 3.9280002
-0.52442062 -1.3119507 3.9245002
-0.51307184 -1.3180325 3.9210002
-0.49169204 -1.319041 3.9240003
-0.48431113 -1.3114493 3.9230001
-0.47372991 -1.3122849 3.9255002
-0.46230853 -1.3107806 3.9210002
-0.44423401 -1.3109479 3.9215002
-0.43396398 -1.3127865 3.9270003
-0.42680964 -1.3131207 3.9280002
-0.4196516 -1.313455 3.9290001
-0.52771014 -1.3038611 3.9220002
-0.48394075 -1.3031963 3.9200001
-0.47705552 -1.3041936 3.9230001
-0.46599528 -1.303695 3.9215002
-0.44055283 -1.3035288 3.9210002
-0.43363246 -1.3045261 3.9240003
-0.42648366 -1.3048586 3.9250002
-0.41591144 -1.3058559 3.9280002
-0.55686712 -1.2751713 3.9230001
-0.55644125 -1.2669461 3.9200001
-0.5041151 -1.3303543 3.9360001
-0.49319568 -1.3303543 3.9360001
-0.5256896 -1.3224025 3.9340003
-0.48517531 -1.3210579 3.9300003
-0.47451386 -1.3217301 3.9320002
-0.44542304 -1.3217301 3.9320002
-0.41259483 -1.3141236 3.9310002
-0.40542755 -1.3144579 3.9320002
-0.53619152 -1.3068532 3.9310002
1.4361557 -1.667853 3.9770002
1.4435111 -1.6604974 3.9770002
1.4302372 -1.6768934 3.9810002
1.4394057 -1.6642551 3.9860003
1.4341891 -1.6741436 3.9920001
