# .PCD v0.7 - Point Cloud Data file format
VERSION 0.7
FIELDS x y z
SIZE 4 4 4
TYPE F F F
COUNT 1 1 1
WIDTH 956
HEIGHT 1
VIEWPOINT 0 0 0 1 0 0 0
POINTS 956
DATA ascii
-1.0139378 -0.18209089 2.1520002
-1.0077338 -0.18204859 2.1515002
-1.2037501 -0.23076032 2.1605
-1.2030226 -0.231775 2.1700001
-1.0660286 -0.20798162 2.1730001
-1.0418223 -0.19628537 2.177
-1.0382726 -0.19637553 2.1780002
-1.213079 -0.23736396 2.1845002
-1.0689185 -0.2129762 2.1830001
-1.0653336 -0.20417395 2.1859999
-1.0487311 -0.19682634 2.1830001
-1.0385182 -0.19718699 2.187
-1.0652164 -0.21588163 2.1920002
-1.0536708 -0.21462306 2.1916001
-1.0472091 -0.21485452 2.1953335
-1.0636747 -0.2078688 2.1930001
-1.0550364 -0.20590772 2.1937144
-1.0432482 -0.22493497 2.2012501
-1.0398517 -0.22552229 2.207
-1.042118 -0.21504959 2.2042501
-1.0374742 -0.23248476 2.2150002
-1.0369285 -0.2241724 2.2138333
-1.033952 -0.23572758 2.2224002
-1.0274605 -0.2351522 2.2273333
-1.0328434 -0.22506595 2.2226667
-1.0276501 -0.22653583 2.2270002
-1.025486 -0.24475411 2.2335
-1.0162184 -0.2450095 2.2358334
-1.0093775 -0.24328583 2.2390001
-1.0224019 -0.23505343 2.2338572
-1.0146812 -0.23479323 2.2370002
-1.006291 -0.23556484 2.2387145
-1.0092771 -0.25257912 2.2480001
-1.0111806 -0.24786891 2.243
-1.0055003 -0.24506891 2.2426667
-0.99606198 -0.24269617 2.2463334
-1.001766 -0.23308885 2.2405
-0.9960866 -0.23490357 2.2437143
-1.0051209 -0.25440967 2.2550001
-1.0043782 -0.24875297 2.2509999
-0.99543095 -0.24598964 2.2562003
-0.98683965 -0.24122757 2.2585001
-0.99809259 -0.26585424 2.2666667
-1.0044367 -0.25816441 2.2605
-0.99602413 -0.25450525 2.2651429
-0.98889375 -0.2506316 2.2680001
-0.99046117 -0.24578498 2.2620001
-0.98363394 -0.24442792 2.2623332
-0.97627807 -0.24302299 2.2655001
-0.993828 -0.26607287 2.2745001
-0.98650092 -0.26004881 2.2770002
-0.992737 -0.25947776 2.2720003
-0.98516047 -0.25348359 2.2710001
-0.97863549 -0.25299248 2.2766666
-0.87720066 -0.25378895 2.2775002
-0.99467373 -0.27595907 2.2832
-0.98516053 -0.27552286 2.2866001
-0.97792965 -0.27804932 2.2865
-0.99099451 -0.26700962 2.2825
-0.98368651 -0.26641527 2.2851431
-0.97728765 -0.26096246 2.2850001
-0.97364455 -0.25486761 2.2834001
-0.87835914 -0.25684869 2.286
-0.97423959 -0.27418754 2.2940001
-0.96797305 -0.27519763 2.2980001
-0.97400606 -0.26455882 2.2942002
-0.88413167 -0.26216161 2.2955
-0.87678587 -0.26463026 2.2985001
-0.86601901 -0.26393947 2.2925003
-0.9642812 -0.27499056 2.3034003
-0.89457375 -0.2718907 2.306
-0.88615489 -0.27339908 2.3007503
-0.89418578 -0.2675097 2.3050001
-0.88644445 -0.26710349 2.3015003
-0.93419516 -0.29133129 2.325
-0.92639029 -0.29158187 2.3270001
-0.88474292 -0.29133129 2.325
-0.94480872 -0.28484029 2.3246667
-0.92648906 -0.28515661 2.32725
-0.92455119 -0.29525247 2.3305001
-0.91622728 -0.29461691 2.3340001
-0.89248562 -0.29677576 2.3340001
-0.92428416 -0.28863609 2.3380001
-0.91014236 -0.28394714 2.335
-0.90858322 -0.28777191 2.3310001
-1.7048439 -0.45334426 2.3550003
-0.63395017 -0.27482125 2.368
-0.62903881 -0.27458912 2.3660002
-1.7160921 -0.47609416 2.3758001
-0.63282847 -0.27089846 2.3720002
-1.7137222 -0.48601243 2.3835001
-1.7126107 -0.47803345 2.3840001
-1.7089553 -0.4726907 2.3830001
-1.7096725 -0.46627432 2.3840001
-0.68558276 -0.28501755 2.3800001
-1.7189955 -0.49541709 2.3970001
-1.7155619 -0.48493746 2.3963335
-1.7131315 -0.47507009 2.3950002
-0.68118674 -0.30680862 2.3955002
-0.65528697 -0.30047846 2.398
-0.63506407 -0.30035317 2.3970001
-0.68647581 -0.29388753 2.3985
-0.64436221 -0.29671401 2.3945
-0.63506407 -0.29370466 2.3970001
-0.62580466 -0.29390964 2.3926668
-0.63519794 -0.28711325 2.3975
-0.64714617 -0.27545398 2.3925002
-1.7173694 -0.4936924 2.4030001
-1.7172633 -0.4863539 2.4070001
-1.7172633 -0.47967628 2.4070001
-0.68388444 -0.30358148 2.4050002
-0.67477781 -0.30792814 2.4042501
-0.6651293 -0.30536139 2.4015002
-0.68459904 -0.2949912 2.4075003
-0.65302318 -0.29703099 2.4060001
-0.64762986 -0.29437488 2.4025002
-0.64547598 -0.28552073 2.40275
-0.6388759 -0.28332755 2.4030001
-1.7201171 -0.50276917 2.411
-1.7170811 -0.5054158 2.4130001
-1.7201171 -0.49831 2.411
-1.7167765 -0.49459946 2.4146669
-1.7157848 -0.48528406 2.41275
-0.68587869 -0.30223271 2.4120002
-0.66997343 -0.30310985 2.4190001
-0.6645366 -0.29596961 2.4155002
-0.65753579 -0.29475719 2.4116669
-1.7175941 -0.51493859 2.4263334
-1.7211353 -0.50568861 2.4250002
-1.7189287 -0.50398201 2.424
-1.7162552 -0.49467978 2.4223335
-0.70664024 -0.33036271 2.4220002
-0.68367773 -0.30323514 2.4200001
-0.67710441 -0.30329782 2.4205
-1.7167807 -0.51349503 2.4336669
-1.7223134 -0.50735682 2.4330001
-1.7195787 -0.50562549 2.4355001
-1.7245809 -0.53560519 2.4490001
-1.7211932 -0.52521932 2.4463336
-1.7163603 -0.51524508 2.4437501
-1.7246168 -0.53702635 2.4555001
-1.7228608 -0.52967477 2.4530001
-1.719725 -0.5210256 2.4550002
-1.6931713 -0.52123785 2.4560001
-1.6890348 -0.52449572 2.45
-1.7145996 -0.5143435 2.4519999
-1.72673 -0.54366255 2.4650002
-1.72673 -0.53454638 2.4650002
-1.7018611 -0.53161818 2.4620001
-1.7233988 -0.52510536 2.4635
-1.7022069 -0.52489221 2.4625001
-1.7268668 -0.5550245 2.4750001
-1.7243439 -0.54579586 2.4746668
-1.7171576 -0.54642177 2.4775
-1.7087736 -0.54292136 2.4720001
-1.7243446 -0.53664261 2.4746668
-1.7157714 -0.53682381 2.4755001
-1.7080824 -0.53813165 2.4710002
-0.79502243 -0.36948523 2.4740002
-1.7232649 -0.55452192 2.4830003
-1.7149949 -0.54948664 2.4810002
-1.7339015 -0.56643087 2.4950001
-1.7258209 -0.56219167 2.4966667
-1.7168186 -0.56226671 2.4970002
-1.7239811 -0.55697852 2.4940002
-1.7153423 -0.55642021 2.4914999
-1.7335513 -0.56858766 2.5044999
-1.7156289 -0.56802005 2.5020001
-1.7411669 -0.58503985 2.5155001
-1.7235868 -0.58306348 2.5170002
-1.7417628 -0.57981294 2.513
-1.7358215 -0.57434696 2.5145001
-1.7258365 -0.57295752 2.5135002
-1.7192076 -0.57539403 2.5140002
-1.21874 -0.48540026 2.5175002
-1.7407399 -0.58725166 2.5250001
-1.7364796 -0.58375376 2.5233333
-1.7293429 -0.58655393 2.5220001
-1.7386718 -0.57722503 2.5220001
-1.2851132 -0.50398892 2.529
-1.2775917 -0.5037896 2.5280001
-1.2843511 -0.49667853 2.5275002
-1.2757841 -0.49615192 2.5272002
-1.2430167 -0.49931151 2.529
-1.2334318 -0.49703029 2.5253334
-1.2265549 -0.48665306 2.5240002
-1.7323686 -0.59737062 2.5332503
-1.7281981 -0.59403145 2.5340002
-1.3049909 -0.50252086 2.5373335
-1.2949404 -0.50508499 2.5345001
-1.2649398 -0.50667775 2.5307503
-1.2575459 -0.50418818 2.5300002
-1.2928883 -0.49416766 2.5314002
-1.2715837 -0.49950895 2.5300002
-1.2649812 -0.49499366 2.5308335
-1.2557025 -0.49502531 2.5310001
-1.2467101 -0.49404997 2.5308003
-1.2375957 -0.49183941 2.5306668
-1.735243 -0.6058653 2.5443335
-1.3152263 -0.50422978 2.5420003
-1.3094939 -0.506181 2.5400002
-0.74576557 -0.4216218 2.5400002
-0.58706671 -0.40679571 2.5650001
-1.0944915 -0.51554739 2.5870001
-1.0867115 -0.51647669 2.5836668
-1.7440816 -0.63695842 2.6140001
-1.18186 -0.64614975 2.7455001
-1.1823542 -0.65431201 2.7585001
-1.1842275 -0.6398136 2.7510002
-1.1829971 -0.64445907 2.7600002
-0.65990472 -0.59222221 2.8150001
-0.6577667 -0.58743286 2.8170002
-0.66154569 -0.59891415 2.822
-0.65528131 -0.59606886 2.825
-0.6513378 -0.58868408 2.8230002
-0.6536451 -0.60124868 2.8330002
-0.040850881 -0.52051932 2.8500001
-0.025116703 -0.52216303 2.8590002
-0.033134528 -0.52883446 2.8665001
-0.019863654 -0.52307624 2.8640001
-0.0040074089 -0.53298539 2.8890002
-0.0040198932 -0.54000562 2.8980002
0.044234082 -0.54019201 2.8990002
0.0040275226 -0.54121685 2.9045
0.01209297 -0.54149634 2.9060001
0.039006464 -0.54743558 2.9090002
0.0040238234 -0.53510702 2.9005001
0.01209297 -0.53612167 2.9060001
0.028226642 -0.5363062 2.9070001
0.0442646 -0.53519928 2.901
0.017515711 -0.54298705 2.914
0.025596071 -0.54563659 2.9137502
0.035452336 -0.54434752 2.9116669
0.017491668 -0.53685963 2.9100001
0.022881581 -0.53704411 2.9110003
0.017575821 -0.55025834 2.924
-0.0040670554 -0.55176383 2.9320002
-1.8553205 -1.0137717 3.0953333
-1.8561182 -1.0046611 3.0966666
-1.8637421 -1.0344529 3.1030002
-1.8555698 -1.0247043 3.1053333
-1.852264 -1.0143692 3.1030002
-1.8489053 -1.0156769 3.1070001
-1.8544592 -1.034412 3.1115003
-1.8512857 -1.025616 3.1110001
-1.8609557 -1.0544933 3.1370001
-1.8609557 -1.0457895 3.1370001
-1.8723038 -1.0642415 3.1660001
-1.8717124 -1.0580517 3.1650002
-1.8746693 -1.071449 3.1700001
-1.8752912 -1.0751669 3.1810002
-0.87285131 -0.9387269 3.2380002
-0.86646104 -0.93529767 3.2365003
-0.85642195 -0.93414271 3.2325001
-0.84850335 -0.93529952 3.2365003
-0.85655582 -0.92531848 3.2330003
-0.84811008 -0.92589086 3.2350001
-0.88128275 -0.94433689 3.2470002
-0.87419915 -0.93417853 3.2430003
-0.84603167 -0.94220579 3.2500002
1.8407869 -0.53462315 3.3710001
1.8503091 -0.53557473 3.3770001
-1.9169254 -1.2564589 3.4010003
-1.9179385 -1.2549474 3.4140003
2.2350049 -0.53214455 3.4355001
2.2398129 -0.52617323 3.4380002
2.2422514 -0.52525496 3.4320002
2.2367024 -0.52693844 3.4430001
-1.9356729 -1.3310798 3.5150001
-1.9345715 -1.3238251 3.5130002
1.6061059 -0.89500558 3.7880001
1.5392908 -0.9179579 3.7960002
1.5450895 -0.91021729 3.7930002
1.5840905 -0.91045725 3.7940001
1.5459042 -0.90367836 3.7950001
1.554997 -0.90635067 3.7915001
1.5659285 -0.90658975 3.7925003
1.5739796 -0.90367836 3.7950001
1.5842986 -0.90355933 3.7945001
1.5935651 -0.90635067 3.7915001
1.5471262 -0.89736831 3.7980001
1.5560224 -0.89642322 3.7940001
1.5669607 -0.89665949 3.7950001
1.5750165 -0.89373797 3.7975001
1.5847286 -0.89510494 3.7983334
1.596087 -0.89373708 3.7975001
1.6003665 -0.8957144 3.7910001
1.535903 -0.92013431 3.8050001
1.5421293 -0.91261703 3.8030002
1.5433458 -0.90629774 3.8060002
1.5901096 -0.89081275 3.8000002
1.5395359 -0.91525674 3.8140001
-1.9779029 -1.5840957 3.8365002
-1.9760984 -1.5720173 3.8330002
-1.9731554 -1.5924029 3.848
-1.9746599 -1.5836382 3.8440001
-1.9731188 -1.5752983 3.8410001
-1.9670709 -1.5961274 3.8570001
-1.9721571 -1.587346 3.8530002
-1.9678359 -1.5860441 3.8585002
-1.9711334 -1.5793996 3.8510001
-1.9622241 -1.5944173 3.8615003
-1.9624782 -1.5839109 3.8620002
-1.9578669 -1.5859616 3.8670001
-1.9580771 -1.6033694 3.8745003
-1.9575727 -1.5957915 3.8735001
-1.9532372 -1.5880122 3.8720002
-1.9475837 -1.5892426 3.8750002
-1.93589 -1.615939 3.8875003
-1.9505993 -1.6060592 3.8810003
-1.9464259 -1.6049477 3.8870001
-1.9505993 -1.5988812 3.8810003
-1.9444228 -1.5925237 3.8830001
-1.9412324 -1.6101974 3.8910003
-1.9345331 -1.6106113 3.8920002
-1.9417315 -1.603413 3.8920002
-1.9345331 -1.603413 3.8920002
-0.2836628 -1.3451107 3.9580002
-0.29523975 -1.3551645 3.9660001
-0.28416446 -1.3548229 3.9650002
-0.27676138 -1.3471497 3.9640002
-0.32547957 -1.3736341 3.9770002
-0.32531497 -1.3655915 3.9750001
-0.27392054 -1.3585815 3.9760003
-0.24083108 -1.3549075 3.9760003
-0.23356555 -1.3554173 3.9775
-0.22618072 -1.3552463 3.9770002
-0.2163728 -1.3540201 3.977
-0.2551527 -1.3491888 3.9700003
-0.24416921 -1.3456866 3.9705002
-0.21503839 -1.3435363 3.9750001
-0.20421696 -1.3448882 3.9790001
-0.37422875 -1.391836 3.9870002
-0.37404102 -1.3837675 3.9850001
-0.36676279 -1.3841147 3.9860003
-0.32597247 -1.3830731 3.9830003
-0.31523702 -1.384462 3.9870002
-0.33727431 -1.3767427 3.9860003
-0.31492075 -1.3757064 3.9830003
-0.30801749 -1.3777789 3.9890001
-0.29326215 -1.3777789 3.9890001
-0.24155794 -1.3700577 3.9880002
-0.21948552 -1.3777789 3.9890001
-0.31499982 -1.3686835 3.9840002
-0.30402535 -1.369027 3.9850001
-0.29274753 -1.3679963 3.9820001
-0.28545448 -1.3683399 3.9830003
-0.26335478 -1.3609734 3.9830003
-0.25592396 -1.3606317 3.9820001
-0.23406468 -1.3693706 3.9860003
-0.22657882 -1.3686835 3.9840002
-0.21552619 -1.3649993 3.9840002
-0.20467886 -1.3626819 3.9880002
-0.24843439 -1.3599483 3.9800003
-0.20437093 -1.353267 3.9820001
-0.19735253 -1.3556459 3.9890001
-0.4416995 -1.4027194 3.9970002
-0.43419841 -1.4023684 3.9960003
-0.4269146 -1.4027194 3.9970002
-0.382177 -1.4013156 3.9930003
-0.37451035 -1.4002628 3.9900002
-0.36740687 -1.4013156 3.9930003
-0.38208127 -1.3935815 3.9920001
-0.36380172 -1.3942797 3.9940002
-0.33064708 -1.3946288 3.9950001
-0.32301557 -1.3935815 3.9920001
-0.35637158 -1.3867191 3.9935002
-0.34568399 -1.3882817 3.9980001
-0.33795121 -1.3868928 3.9940002
-0.27920502 -1.3812329 3.9990001
-0.2051921 -1.3808874 3.9980001
-0.30086592 -1.3788151 3.9920001
-0.28609949 -1.3788151 3.9920001
-0.27505681 -1.3716036 3.9925003
-0.25695229 -1.3734931 3.9980001
-0.24555333 -1.3754679 3.9930003
-0.2343583 -1.3784696 3.9910002
-0.22697693 -1.3784696 3.9910002
-0.21224079 -1.3749526 3.9915004
-0.20503813 -1.3724625 3.9950001
-0.19011773 -1.3566654 3.9920001
-0.18268874 -1.3563255 3.9910002
-0.17530738 -1.3563255 3.9910002
-0.16817848 -1.3509722 3.9970002
-0.39083034 -1.413287 4.006
-0.38332552 -1.4129342 4.0050001
-0.42015189 -1.4048251 4.0030003
-0.413367 -1.4069307 4.0090003
-0.39429098 -1.4050004 4.0035
-0.36083326 -1.4044741 4.0020003
-0.33522344 -1.4057024 4.0055003
-0.32374382 -1.4041232 4.0010004
-0.31673929 -1.4058778 4.006
-0.3536965 -1.3981197 4.0050001
-0.3463757 -1.3984687 4.006
-0.33871275 -1.3974215 4.0030003
-0.3162649 -1.3963742 4
-0.30909854 -1.390018 4.0030003
-0.24264823 -1.3910596 4.006
-0.23523912 -1.3910596 4.006
-0.22765939 -1.390018 4.0030003
-0.27194479 -1.3819236 4.0010004
-0.26480943 -1.3833052 4.0050001
-0.25740215 -1.3833052 4.0050001
-0.2496828 -1.3815782 4
-0.26447883 -1.3741802 4
-0.19436535 -1.3679781 4.0035
-0.18337537 -1.3688323 4.006
-0.17583449 -1.3678073 4.0030003
-0.16830471 -1.3593842 4
-0.44413069 -1.4178733 4.0190001
-0.43637156 -1.4168149 4.0160003
-0.42496496 -1.4159329 4.0135002
-0.41408876 -1.4168149 4.0160003
-0.40645865 -1.4161093 4.0140004
-0.39863709 -1.4146981 4.0100002
-0.37648144 -1.415051 4.0110002
-0.36970717 -1.4175205 4.0180001
-0.32503846 -1.4171677 4.0170002
-0.35422638 -1.4076326 4.0110002
-0.34706742 -1.4086854 4.0140004
-0.31017956 -1.4023088 4.0170002
-0.30244863 -1.3934904 4.013
-0.29487956 -1.3927959 4.0110002
-0.28392655 -1.393664 4.0135002
-0.27316824 -1.3955739 4.0190001
-0.2543357 -1.3941848 4.0150003
-0.2135967 -1.3948793 4.0170002
-0.20621859 -1.3952266 4.0180001
-0.19883676 -1.3881407 4.0190001
-0.19868833 -1.3796769 4.0160003
-0.16876754 -1.3705409 4.0110002
-0.161671 -1.3658413 4.0190001
-0.43033248 -1.4288529 4.0290003
-0.4226709 -1.4281436 4.0270004
-0.41522297 -1.4281436 4.0270004
-0.40385133 -1.4274343 4.0250001
-0.39239132 -1.4263704 4.0220003
-0.3854312 -1.4281436 4.0270004
-0.3556394 -1.4206957 4.0270004
-0.34463856 -1.4214013 4.0290003
-0.36281687 -1.4196372 4.0240002
-0.33288175 -1.4189317 4.0220003
-0.31048843 -1.411142 4.0210004
-0.28502542 -1.406498 4.0290003
-0.25124332 -1.4051015 4.0250001
-0.26606569 -1.39731 4.0240002
-0.44623035 -1.4320446 4.0380001
-0.43821874 -1.4302714 4.033
-0.34914255 -1.4357789 4.0380001
-0.33420599 -1.4320446 4.0380001
-0.30433282 -1.4245764 4.0380001
-0.30403134 -1.4157043 4.0340004
-0.29664397 -1.4160552 4.0350003
-0.28537911 -1.4157043 4.0340004
-0.27445966 -1.4171081 4.0380001
-0.25553924 -1.4157043 4.0340004
-0.30372989 -1.406847 4.0300002
-0.29627639 -1.406847 4.0300002
-0.27425575 -1.4085925 4.0350003
-0.25913745 -1.4075452 4.0320001
-0.19952939 -1.4004352 4.033
-0.19202273 -1.3851737 4.0320001
-0.18470286 -1.3862042 4.0350003
-0.17702049 -1.3844866 4.0300002
-0.16956699 -1.3844866 4.0300002
-0.16231462 -1.3787415 4.0350003
-0.10268899 -1.3722984 4.0380001
-0.50697911 -1.4573311 4.046
-0.49508008 -1.4553499 4.0405002
-0.43984863 -1.4505646 4.0480003
-0.39502549 -1.450923 4.0490003
-0.49508101 -1.447877 4.0405002
-0.43424913 -1.4435502 4.0423336
-0.42440274 -1.4452152 4.0434999
-0.41687274 -1.4412954 4.0430002
-0.40575767 -1.4416518 4.0440001
-0.39444011 -1.4412954 4.0430002
-0.38744113 -1.4430778 4.0480003
-0.357494 -1.4430778 4.0480003
-0.37588149 -1.4343498 4.0445004
-0.35687581 -1.4331086 4.0410004
-0.34192812 -1.4331086 4.0410004
-0.29708508 -1.4256347 4.0410004
-0.28612053 -1.4268695 4.0445004
-0.2677187 -1.428457 4.0490003
-0.26722279 -1.4146004 4.0415001
-0.19249897 -1.3960848 4.0420003
-0.18534371 -1.3985025 4.0490003
-0.17387657 -1.3966029 4.0434999
-0.16259621 -1.3960848 4.0420003
-0.1627169 -1.3896397 4.0450001
-0.42581969 -1.4612931 4.0570002
-0.48512861 -1.4553858 4.0510001
-0.4747099 -1.4541481 4.0580001
-0.46356526 -1.4545064 4.059
-0.45594576 -1.4541481 4.0580001
-0.44430572 -1.4566419 4.0545001
-0.43268228 -1.459132 4.0510001
-0.4140527 -1.451998 4.052
-0.40271294 -1.4516397 4.0510001
-0.46288002 -1.4448603 4.053
-0.45549634 -1.4452168 4.0540004
-0.44766694 -1.4441473 4.0510001
-0.38098684 -1.4469992 4.059
-0.36525127 -1.436655 4.0510001
-0.28318468 -1.4384282 4.0560002
-0.27527529 -1.4288099 4.0500002
-0.21572363 -1.4162725 4.0570002
-0.20451796 -1.4166217 4.0580001
-0.19302285 -1.4073801 4.053
-0.18580146 -1.4094636 4.059
-0.1555043 -1.3957899 4.052
-0.5164966 -1.4630941 4.0620003
-0.4751769 -1.4630941 4.0620003
-0.46447891 -1.464895 4.0670004
-0.45695698 -1.464895 4.0670004
-0.44910353 -1.4638145 4.0640001
-0.41903803 -1.4638145 4.0640001
-0.40400529 -1.4638145 4.0640001
-0.37375575 -1.4555814 4.0620003
-0.3664234 -1.4562981 4.0640001
-0.37375575 -1.4480687 4.0620003
-0.36624306 -1.4480687 4.0620003
-0.19378483 -1.4279873 4.0690002
-0.18625921 -1.4279873 4.0690002
-0.22350217 -1.418018 4.0620003
-0.19345146 -1.418018 4.0620003
-0.18593879 -1.418018 4.0620003
-0.17477958 -1.4113734 4.0645003
-0.41212922 -1.4659756 4.0700002
-0.21684027 -1.4311458 4.0780001
-0.2016073 -1.4300929 4.0750003
-0.22416244 -1.429742 4.0740004
-0.17912892 -1.4236035 4.0780001
-0.23964325 -1.4472942 4.0810003
-0.20950329 -1.4325496 4.0820003
-0.1794364 -1.4336023 4.085
-0.23260728 -1.4504861 4.0900002
-0.22509784 -1.4432744 4.0910001
-0.21790373 -1.4457439 4.098
-0.20269574 -1.4453911 4.0970001
-0.22586815 -1.4558057 4.105
-0.21848863 -1.4572242 4.1090002
-0.21063241 -1.4478606 4.1040001
-0.22630833 -1.4662498 4.1130004
-0.21500233 -1.4669628 4.1150002
-0.21099168 -1.4579335 4.1110001
-0.82595211 -1.8361392 4.4770002
-0.8176719 -1.8361392 4.4770002
-0.82622886 -1.8243294 4.4785004
-0.8176719 -1.8278589 4.4770002
-0.83609569 -1.8402405 4.487
-0.827797 -1.8485391 4.487
-0.81986356 -1.8493631 4.4890003
-0.83572304 -1.8311251 4.4850001
-0.8101148 -1.8377796 4.4810004
-0.8143481 -1.8214077 4.4815001
-0.80993402 -1.8290838 4.48
-0.83702737 -1.8505991 4.4920001
-0.81210351 -1.8505991 4.4920001
-0.80486917 -1.8447518 4.4980001
-0.84571171 -1.8347996 4.4940004
-0.80504811 -1.836841 4.4990001
-0.83130229 -1.8647006 4.506
-0.84684086 -1.8538948 4.5
-0.80647963 -1.8567786 4.5070004
-0.84684086 -1.8455721 4.5
-0.82424688 -1.8675973 4.513
-0.80026901 -1.8533645 4.5190001
-0.80934268 -1.8717356 4.5230002
-0.80097735 -1.8633703 4.5230002
-0.80292535 -1.8762877 4.5340004
-0.79497778 -1.8647363 4.5365
-0.79611689 -1.8800122 4.5430002
-0.78858155 -1.8820813 4.5480003
-0.78736782 -1.8707858 4.5410004
-0.78823477 -1.8644379 4.546
-0.84052664 -1.9022446 4.5560002
-0.78085613 -1.8753176 4.552
-0.78205693 -1.8697696 4.559
2.0319605 -1.374994 4.5540004
2.033299 -1.3632584 4.5570002
-0.78360081 -1.8988063 4.5680003
-0.78222847 -1.8870472 4.5600004
-0.76653594 -1.8814973 4.5670004
-0.77455837 -1.8762431 4.5645003
2.0288699 -1.3828405 4.566
2.0302029 -1.3752986 4.5690002
2.0302029 -1.3668483 4.5690002
-0.77600074 -1.8924268 4.5730004
-0.75974917 -1.885617 4.5770001
2.0252924 -1.3946371 4.5770001
2.0239649 -1.3852633 4.5740004
2.0244074 -1.3771048 4.5750003
-0.77820677 -1.9062885 4.5860004
-0.76522946 -1.8971858 4.5845003
-0.7529254 -1.885493 4.5869999
-0.76306903 -1.9108609 4.5970001
-0.77073199 -1.9087825 4.592
-0.75440276 -1.9019449 4.5960002
-0.74509096 -1.8913847 4.5910001
2.0251994 -1.4089267 4.5960002
2.0238776 -1.3952659 4.5930004
-0.78092182 -1.9214507 4.6020002
-0.77291393 -1.9227033 4.605
-0.75555176 -1.913355 4.6030002
-0.74671388 -1.904014 4.6010003
-0.76539296 -1.9252084 4.6110001
-0.74817455 -1.9162647 4.6100001
2.0182486 -1.4245204 4.6190004
2.0228422 -1.4217447 4.6100001
2.0182486 -1.4159776 4.6190004
2.0237198 -1.4138317 4.612
2.0178115 -1.40713 4.618
2.0237198 -1.4053018 4.612
-0.75867045 -1.9298012 4.6220002
-0.74237585 -1.9147735 4.6270003
-0.7606402 -1.943382 4.6340003
-0.75142038 -1.9331414 4.6300001
-0.74414074 -1.9279037 4.638
2.0179725 -1.434669 4.638
2.0179725 -1.421802 4.638
-0.75385481 -1.9479952 4.6450005
2.0090129 -1.4534661 4.6570001
2.0150268 -1.4515934 4.651
2.0094445 -1.4451631 4.658
2.0158932 -1.4436119 4.6530004
2.0085816 -1.4359313 4.6560001
2.01546 -1.4346977 4.6520004
-0.7481519 -1.9469197 4.6630001
-0.75023764 -1.9609958 4.6760001
-0.74975634 -1.9683805 4.6730003
-0.74571282 -1.9718995 4.7020001
-0.050365645 -1.885426 4.7360001
1.3648273 -1.6277164 4.7379999
1.3782635 -1.62806 4.7390003
1.3870282 -1.6105304 4.7390003
1.3954985 -1.6101905 4.7380004
-0.059187308 -1.8918017 4.7410002
-0.059199795 -1.8834305 4.7420001
1.3615953 -1.6203203 4.7420001
1.379136 -1.6203203 4.7420001
1.3879063 -1.6247056 4.7420001
1.3969711 -1.6294341 4.743
1.4058915 -1.6252198 4.7435002
1.3731922 -1.6143595 4.7416668
1.3963821 -1.6199785 4.7410002
1.4048542 -1.6108702 4.7400002
-0.068099134 -1.8957921 4.7510004
-0.068142138 -1.8881966 4.7540002
1.3568189 -1.6426965 4.756
1.3553925 -1.6321825 4.7510004
1.417796 -1.6332132 4.7540002
1.4192872 -1.6261292 4.7590003
1.4186908 -1.6166476 4.7570004
1.4295894 -1.6366487 4.7640004
1.3545417 -1.6594793 4.7790003
1.43199 -1.6305711 4.7720003
1.3396615 -1.6718091 4.789
1.3468293 -1.6652913 4.783
1.3236033 -1.6739036 4.7950001
1.3321937 -1.6735545 4.7940001
1.3335831 -1.6664242 4.7990003
1.340221 -1.6636462 4.7910004
1.4477603 -1.6561669 4.7950001
1.4486661 -1.6483291 4.7980003
1.3166542 -1.6763473 4.802
1.3252594 -1.6671187 4.8010001
1.3139162 -1.6744837 4.8136673
-0.52460206 -2.0425994 4.8280001
-0.52471071 -2.0340915 4.829
-0.51556587 -2.0332489 4.8270001
-0.50674325 -2.0336702 4.8280001
1.3045719 -1.6836782 4.8230004
1.4663497 -1.6672195 4.8270001
1.4669572 -1.6589791 4.829
-0.54324734 -2.0455611 4.835
-0.53408402 -2.0447149 4.8330002
-0.54324734 -2.0366187 4.835
-0.53397352 -2.0353551 4.8320003
-0.49802011 -2.0345125 4.8300004
-0.48467109 -2.0347233 4.8305006
-0.54347205 -2.0285151 4.8370004
-0.53430504 -2.0276763 4.835
-0.52547133 -2.0236208 4.8360004
-0.51631355 -2.027257 4.8340001
-0.50768793 -2.0285151 4.8370004
-0.49884498 -2.0289345 4.8380003
1.4687799 -1.678925 4.835
1.4783335 -1.6706735 4.8370004
1.4783335 -1.6617274 4.8370004
1.9075463 -1.5944649 4.8365002
-0.55344599 -2.0591776 4.8460002
-0.55298918 -2.0485225 4.842
-0.55316049 -2.0357187 4.8435001
-0.48124743 -2.0301926 4.8410001
-0.47239155 -2.030612 4.842
-0.46362767 -2.0314507 4.8440003
-0.49493629 -2.0267587 4.8435001
-0.19505915 -1.9976747 4.8490005
-0.1860909 -1.9887065 4.8490005
-0.17712267 -1.9887065 4.8490005
-0.18605253 -1.9793299 4.848
-0.17708614 -1.9703635 4.848
1.4804729 -1.6820502 4.8440003
1.901938 -1.6107107 4.8450003
1.9186709 -1.6007581 4.842
1.9214447 -1.5941041 4.8490005
-0.5636853 -2.0548687 4.8570004
-0.56333715 -2.0446219 4.8540001
-0.43756217 -2.0442007 4.8530002
-0.4554196 -2.0348058 4.8520002
-0.44699788 -2.037322 4.8580003
-0.25818241 -2.0048404 4.8555002
-0.24907386 -2.0038085 4.8530002
-0.24029613 -1.9919875 4.8570004
-0.23406561 -1.9959177 4.8519998
-0.22212407 -1.994627 4.8525
-0.2131274 -1.994422 4.8520002
-0.20406945 -1.9980867 4.8500004
-0.14148276 -1.9919875 4.8570004
-0.2133031 -1.9825962 4.8560004
-0.20415361 -1.9854499 4.8520002
-0.19511949 -1.9848356 4.8505001
-0.17715921 -1.9801465 4.8500004
-0.16824113 -1.9852449 4.8515005
-0.15630312 -1.9840899 4.8523335
-0.14154102 -1.983821 4.8590002
-0.16825847 -1.9719893 4.8520002
-0.15489165 -1.9732085 4.8550005
1.4925067 -1.6765451 4.8540001
1.9039007 -1.6034029 4.8500004
1.9050784 -1.595419 4.8530002
-0.43864414 -2.0402577 4.8650002
-0.42488521 -2.0479918 4.8620005
-0.2767401 -2.0226777 4.8660002
-0.27691072 -2.0149195 4.8690004
-0.26746529 -2.0116088 4.8610001
-0.26779544 -2.0050902 4.8670001
-0.24948445 -1.993628 4.8610001
-0.13260885 -1.993628 4.8610001
-0.13263613 -1.9850458 4.8620005
-0.14165755 -1.97646 4.8630004
-0.13274525 -1.9776793 4.8660002
-0.069704503 -1.97646 4.8630004
1.4943516 -1.6876061 4.8600001
1.5061241 -1.6817261 4.8690004
1.9011819 -1.6266918 4.8660002
1.9015727 -1.6180246 4.8670001
-0.30442578 -2.0362701 4.8770003
-0.29516345 -2.0255873 4.8730001
-0.29534516 -2.0178163 4.8760004
-0.28603339 -2.0157471 4.8710003
-0.27725196 -2.0083861 4.875
-0.12389816 -1.9981394 4.8720002
-0.1239363 -1.9852328 4.8734999
1.5089082 -1.6938565 4.8780003
-0.40405983 -2.0564163 4.8820004
-0.38639662 -2.0585225 4.8870001
-0.31383139 -2.0342579 4.8830004
-0.31408849 -2.0223682 4.8870001
-0.30476907 -2.0250196 4.8825002
-0.11514677 -2.0026507 4.8830004
-0.10622431 -2.0047014 4.888
-0.11512319 -1.9932114 4.8820004
-0.10618085 -1.9948444 4.8860002
-0.11517035 -1.984995 4.8840003
-0.10618085 -1.9858078 4.8860002
-0.079119392 -1.987027 4.8890004
-0.39575881 -2.0602074 4.8910003
-0.33284521 -2.0536776 4.8970003
-0.32365596 -2.0437856 4.8950005
-0.32392043 -2.0363948 4.8990002
-0.097303241 -2.0071621 4.8940001
-0.088323906 -2.0088027 4.8980002
-0.097243592 -1.9968859 4.8910003
-0.088251777 -1.9981107 4.8940001
-0.079216495 -1.9985189 4.8950005
1.5225977 -1.6990651 4.8930001
1.5319602 -1.6948876 4.8940001
-0.37867078 -2.0656831 4.9040003
-0.36089846 -2.0677893 4.9090004
-0.34211168 -2.0549357 4.9000001
-0.33352491 -2.0487959 4.9070001
-0.079313591 -2.0100331 4.901
1.9081255 -1.6449368 4.9070005
-0.37050524 -2.0707378 4.9160004
-0.35203427 -2.0599682 4.9120002
-0.34294951 -2.0508835 4.9120002
1.5460498 -1.7049683 4.9100003
-0.36170715 -2.0633233 4.9200001
1.1064601 -1.8228074 4.934
1.1069086 -1.8144172 4.9360003
1.1160377 -1.8144172 4.9360003
1.0988915 -1.8253936 4.9410005
1.0991139 -1.8166227 4.9420004
1.0993363 -1.8078482 4.9430003
1.0943847 -1.842329 4.9620004
1.095708 -1.8353684 4.9680004
1.0952669 -1.8254448 4.9660001
1.2184895 -1.9453079 5.1370001
1.2296637 -1.9479587 5.1440001
1.2194383 -1.9373143 5.1410003
1.240623 -1.9502308 5.1500001
1.2508762 -1.9513669 5.1530004
1.2313371 -1.9410827 5.151
1.2427911 -1.9440974 5.1590004
1.2626081 -1.954775 5.1620002
1.2733874 -1.9566685 5.1670003
1.2826955 -1.9562898 5.1660004
1.2917497 -1.9555324 5.164
1.2530609 -1.9452279 5.1620002
1.2643203 -1.9478657 5.1690001
1.283192 -1.9474889 5.1680002
1.2927504 -1.9474889 5.1680002
1.2741268 -1.9482425 5.1700001
1.3039465 -1.9451499 5.1745005
1.313136 -1.9493731 5.1730003
1.283937 -1.9390557 5.1710005
1.324749 -1.9523878 5.1810002
1.3361341 -1.9550257 5.1880002
1.3459886 -1.9554025 5.1890001
1.3151667 -1.9428055 5.1810002
1.356892 -1.9572866 5.1940002
1.3675506 -1.958794 5.1980004
1.3774292 -1.9591708 5.1990004
1.3270502 -1.9461803 5.1900001
1.3387095 -1.9491802 5.1980004
1.3483232 -1.9491802 5.1980004
1.8774385 -1.8630152 5.1990004
1.389446 -1.9625623 5.2080002
1.3595043 -1.9514302 5.2040005
1.3704447 -1.9533051 5.2090001
1.3800787 -1.9533051 5.2090001
1.8777996 -1.872991 5.2000003
1.3915803 -1.95593 5.2160001
1.8728527 -1.8776734 5.2130003
1.873212 -1.8683903 5.2140002
1.4025705 -1.9674612 5.2210002
1.4138497 -1.9697223 5.2270002
1.4530748 -1.9608048 5.2290001
1.4627459 -1.9608048 5.2290001
1.4638648 -1.9719832 5.2330003
1.4049883 -1.9611799 5.23
1.4170955 -1.9645547 5.2390003
1.44506 -1.9630548 5.2350001
1.4539086 -1.9522532 5.2320004
1.4630257 -1.951507 5.23
1.4270575 -1.9843125 5.2400002
1.4281468 -1.9761285 5.2440004
1.8313365 -1.9438084 5.2880001
1.8256899 -1.9580218 5.3000002
1.8114238 -2.0052388 5.3740001
1.8045015 -2.0185528 5.3830004
1.797546 -2.0219276 5.3920002
1.8068482 -2.0112088 5.3900003
-0.79693067 -2.5057099 5.4030004
-0.78766602 -2.5080287 5.4080005
-0.79766816 -2.4980266 5.4080005
-0.7770887 -2.4861841 5.4040003
1.800213 -2.0149403 5.4000001
-0.78839427 -2.5003362 5.4130001
-0.7685135 -2.4907849 5.414
1.7950327 -2.0353706 5.4145002
-0.77967709 -2.5145214 5.4220004
-0.77967709 -2.5044932 5.4220004
-0.77234614 -2.5233328 5.4410005
-0.77220416 -2.5128078 5.4400001
1.7963924 -2.0533798 5.4490004
-0.76466471 -2.5413113 5.4580002
-0.75526136 -2.5436394 5.4630003
-0.76522511 -2.5330718 5.4620004
-0.7559526 -2.5358543 5.4680004
-0.76508498 -2.5225079 5.4610004
-0.75609088 -2.5262032 5.4690003
1.790904 -2.0788631 5.4630003
1.790904 -2.0687594 5.4630003
1.7902484 -2.0579019 5.4610004
-0.74679434 -2.5492268 5.4750004
-0.73828292 -2.5548141 5.4870005
-0.74774915 -2.5423472 5.4820004
1.7869937 -2.0860934 5.4820004
-0.72879821 -2.5571423 5.4920001
-0.73922479 -2.5479124 5.4940004
-0.72959441 -2.5497673 5.4980001
1.7817166 -2.1019681 5.4970002
1.7823648 -2.0925624 5.4990001
-0.71511745 -2.5627294 5.5040007
-0.72047269 -2.5534773 5.506
1.7741281 -2.1152086 5.5050001
1.7747726 -2.105792 5.5070004
1.7747726 -2.0956068 5.5070004
-0.70112318 -2.5673857 5.5140004
-0.71119237 -2.5567238 5.5130005
-0.70150465 -2.5585787 5.5170002
-0.69280457 -2.5641439 5.5290003
1.770996 -2.1236618 5.5270004
1.770996 -2.1134396 5.5270004
-0.69292992 -2.5748355 5.5300002
-0.68480086 -2.5827508 5.5470004
-0.68430704 -2.5706365 5.5430002
-0.6747849 -2.5734191 5.5490003
-0.68541813 -2.5953474 5.552
-0.67527133 -2.5855446 5.5530005
-0.66571957 -2.5780568 5.5590005
1.7693753 -2.1340361 5.5540004
-0.67612255 -2.599087 5.5600004
-0.66655785 -2.5915976 5.5660005
1.7632207 -2.1390312 5.5670004
-0.66787517 -2.607034 5.5770001
-0.65697098 -2.5840857 5.572
-0.64840639 -2.6013753 5.5870004
-0.65791422 -2.5981162 5.5800004
-0.64759398 -2.5877957 5.5800004
-0.65932906 -2.6140459 5.5920005
-0.64956695 -2.6163831 5.5970001
-0.64035732 -2.6210577 5.6070004
-0.64030021 -2.605268 5.6065001
-0.63099837 -2.6252649 5.6160002
-0.62116414 -2.6276021 5.6210003
-0.63156015 -2.6172061 5.6210003
-0.62182719 -2.6199999 5.6270003
-0.61218065 -2.6336792 5.6340003
-0.60325587 -2.6506696 5.6480002
-0.61315852 -2.6274495 5.6430001
-0.60389668 -2.6430285 5.6540003
-0.56753594 -2.6687388 5.7090001
-0.55697715 -2.6687388 5.7090001
-0.56803298 -2.6816442 5.7140002
-0.5576601 -2.6825829 5.7160001
-0.54727972 -2.6835215 5.7180004
-0.54680121 -2.6706088 5.7130003
-0.15080379 -2.7610803 5.9300003
-0.15088008 -2.7515039 5.9330001
0.013755674 -2.7373788 5.9500003
0.78575873 -2.7430639 6.1350002
0.79749519 -2.7444053 6.1380005
0.77466446 -2.7326076 6.1370001
0.809111 -2.7452993 6.1400003
0.78639913 -2.7339435 6.1400003
0.79801494 -2.734834 6.1420002
1.6616182 -2.5989413 6.1430001
1.6542864 -2.6052876 6.1580005
1.6551695 -2.6247489 6.2040005
1.3939514 -2.6873083 6.2160001
1.4196798 -2.6924961 6.2280002
1.3835669 -2.6894698 6.2210002
1.4065784 -2.6894698 6.2210002
1.4321177 -2.6942255 6.2320004
1.4450337 -2.6968193 6.2380004
1.5747148 -2.6900175 6.2490001
1.6435338 -2.6776025 6.2470002
1.6461648 -2.6703165 6.2570004
1.6248358 -2.6848891 6.2640004
1.6353761 -2.6831746 6.2600002
