# .PCD v0.7 - Point Cloud Data file format
VERSION 0.7
FIELDS x y z
SIZE 4 4 4
TYPE F F F
COUNT 1 1 1
WIDTH 1258
HEIGHT 1
VIEWPOINT 0 0 0 1 0 0 0
POINTS 1258
DATA ascii
-1.6939805 -0.40754986 2.3380001
-1.6918138 -0.35622847 2.3370001
-1.6939805 -0.34917399 2.3380001
-1.6921691 -0.33368468 2.3355002
-1.6889336 -0.33173552 2.3370001
-1.6874882 -0.32497373 2.335
-1.7410507 -0.96338862 2.3490002
-1.7410507 -0.95904416 2.3490002
-1.7395684 -0.95388681 2.3470001
-1.7403095 -0.94126534 2.348
-1.736885 -0.94597846 2.3453333
-1.7048421 -0.49376392 2.3470001
-1.7055684 -0.48963168 2.348
-1.6968832 -0.42014959 2.348
-1.6950755 -0.41483527 2.3425002
-1.6935078 -0.40307868 2.3413334
-1.697244 -0.39584318 2.3455
-1.6921856 -0.36485523 2.3415003
-1.6911017 -0.35380054 2.3400002
-1.6961603 -0.34495407 2.3446
-1.6932697 -0.33692059 2.3430002
-1.6910989 -0.32867414 2.3460002
-1.6889267 -0.32433519 2.3460002
-1.7418816 -0.9924041 2.3560002
-1.7520825 -0.98016316 2.358
-1.74582 -0.98657542 2.3525002
-1.7418816 -0.97061694 2.3560002
-1.7447566 -0.96979296 2.3540001
-1.7385546 -0.96223891 2.3515
-1.7378153 -0.95313615 2.3505001
-1.7389243 -0.94286883 2.352
-1.7410975 -0.93851882 2.3520002
-1.7353736 -0.90204525 2.3590002
-1.7353736 -0.84532654 2.3590002
-1.7353736 -0.83223766 2.3590002
-1.7331667 -0.82464403 2.3559999
-1.7306174 -0.81357038 2.3555002
-1.7275676 -0.81393498 2.3523333
-1.7331667 -0.80939215 2.3560002
-1.7244519 -0.74403071 2.3560002
-1.7229952 -0.73406589 2.3555002
-1.7186342 -0.7368685 2.3540001
-1.7244662 -0.71007431 2.3590002
-1.7233692 -0.70526266 2.3575001
-1.7193644 -0.70015913 2.355
-1.7225108 -0.6973533 2.3553336
-1.7215546 -0.67052317 2.358
-1.7215545 -0.6639806 2.3580003
-1.7215545 -0.65526015 2.3580003
-1.7215546 -0.64871752 2.358
-1.713313 -0.58538163 2.3546667
-1.7081103 -0.58243489 2.3545001
-1.7157402 -0.56609613 2.3590002
-1.703033 -0.42548656 2.3534999
-1.6990281 -0.42176002 2.3570001
-1.6950636 -0.41425359 2.3515
-1.6939822 -0.40529531 2.3500001
-1.6978267 -0.3953234 2.3553333
-1.6966139 -0.36488292 2.3556669
-1.6946894 -0.35495475 2.3534
-1.6993885 -0.34554553 2.3575001
-1.6951728 -0.33555317 2.353667
-1.6910739 -0.32951471 2.352
-1.7430553 -0.99337626 2.3635001
-1.7466557 -0.98557001 2.3650002
-1.7465156 -0.97708893 2.36375
-1.7421458 -0.96506393 2.3637502
-1.7397875 -0.96995068 2.365
-1.7452679 -0.95524734 2.3665001
-1.744899 -0.94629228 2.3660002
-1.750384 -0.93375754 2.3675001
-1.7463176 -0.93814063 2.3620002
-1.7473222 -0.92342377 2.3653333
-1.7453306 -0.91499215 2.3654001
-1.736881 -0.9138599 2.3670001
-1.7454268 -0.9060477 2.36375
-1.7344871 -0.90437734 2.3622501
-1.744899 -0.89815712 2.3660002
-1.7383162 -0.89920443 2.3630002
-1.735698 -0.85331213 2.3642001
-1.733942 -0.84457612 2.3630002
-1.7341777 -0.8359713 2.3613336
-1.7337084 -0.82548684 2.3646669
-1.7339671 -0.81385821 2.3690002
-1.7295755 -0.81616729 2.3630002
-1.7343252 -0.79111511 2.3665001
-1.7341423 -0.78446579 2.36625
-1.7349325 -0.77501249 2.3663332
-1.7335922 -0.7645281 2.3655
-1.7292206 -0.76769024 2.3685002
-1.7325032 -0.75407302 2.3670001
-1.7226558 -0.74389917 2.3625002
-1.7230194 -0.73187113 2.3660002
-1.7193782 -0.73687637 2.3610001
-1.7321372 -0.72327352 2.3665001
-1.7272093 -0.72586244 2.3642502
-1.7303073 -0.71595156 2.3640001
-1.7230164 -0.71363878 2.3660002
-1.7208347 -0.70690799 2.3630002
-1.7191305 -0.70449233 2.3646667
-1.7224696 -0.69664544 2.3652501
-1.722777 -0.67505002 2.3636668
-1.7203451 -0.66503459 2.3643334
-1.7157167 -0.66022789 2.368
-1.7208347 -0.65009314 2.3630002
-1.7184966 -0.65665519 2.3646002
-1.7252072 -0.64480942 2.365
-1.7292206 -0.63627481 2.3685002
-1.7237477 -0.60303807 2.3670001
-1.7219272 -0.59584188 2.3645
-1.7186435 -0.59403145 2.3660002
-1.7113694 -0.58865863 2.3620002
-1.7072281 -0.58486611 2.3643334
-1.7069575 -0.5770151 2.368
-1.721922 -0.56375718 2.3675001
-1.7117164 -0.56765592 2.3655
-1.7215557 -0.55803615 2.368
-1.714023 -0.54435891 2.3656666
-1.697938 -0.41535252 2.3652
-1.6982377 -0.40471497 2.3644001
-1.6997018 -0.37054592 2.3640001
-1.6978706 -0.3640604 2.3645
-1.697481 -0.35569489 2.3670001
-1.6977787 -0.34638229 2.3662002
-1.6962223 -0.33464885 2.3652501
-1.7438335 -0.98536003 2.3705001
-1.7444582 -0.97711581 2.3753335
-1.7460403 -0.96246088 2.3735001
-1.7456726 -0.95348269 2.3730001
-1.7482406 -0.94330162 2.375
-1.7489552 -0.93533516 2.3715
-1.7500864 -0.92729282 2.3790002
-1.7461586 -0.92374611 2.3736668
-1.7412865 -0.91849285 2.3790002
-1.7357937 -0.91236389 2.3745
-1.7379928 -0.90577412 2.3745003
-1.7443504 -0.89576036 2.3724
-1.7507989 -0.88143671 2.3740001
-1.7471321 -0.8861798 2.3726001
-1.7443917 -0.8639648 2.3742502
-1.7357928 -0.85746419 2.3745003
-1.7376268 -0.84411561 2.3740001
-1.7390907 -0.83603698 2.3759999
-1.7368934 -0.82724905 2.3760002
-1.731776 -0.81708145 2.3720002
-1.7434851 -0.80307978 2.3760002
-1.7390907 -0.80307978 2.3760002
-1.734695 -0.79548061 2.3730001
-1.7327906 -0.78455377 2.3758004
-1.7288454 -0.78923166 2.3740001
-1.7336025 -0.77743387 2.3715
-1.7281171 -0.77354002 2.3730001
-1.732506 -0.76256597 2.3730001
-1.7281171 -0.76475859 2.3730001
-1.7315279 -0.75692838 2.3736668
-1.7288454 -0.75410587 2.3740001
-1.7249352 -0.74553007 2.3746669
-1.7220845 -0.73600054 2.3722501
-1.7261028 -0.72533625 2.37325
-1.7244498 -0.71604806 2.3739998
-1.7222376 -0.70450175 2.3770001
-1.7310458 -0.69176054 2.3710001
-1.7261604 -0.69419545 2.3743336
-1.732141 -0.68561769 2.3724999
-1.7275575 -0.68641216 2.3752503
-1.7235367 -0.67404544 2.3742502
-1.7192867 -0.67209476 2.3790002
-1.716894 -0.66473371 2.3736668
-1.7226207 -0.65325689 2.3745003
-1.7303019 -0.64048636 2.3760002
-1.726649 -0.6465342 2.3740001
-1.7303019 -0.63169748 2.3760002
-1.7288454 -0.63555646 2.3740001
-1.7242702 -0.60585314 2.3737502
-1.721549 -0.59941906 2.3700001
-1.7156695 -0.59457463 2.3739998
-1.7105616 -0.58701122 2.3730001
-1.7148867 -0.57089555 2.3790002
-1.708005 -0.57372367 2.3724999
-1.7200639 -0.56091428 2.3740001
-1.7185816 -0.56431514 2.3760002
-1.7207885 -0.55456263 2.375
-1.7178413 -0.55283058 2.3770001
-1.7164195 -0.54728067 2.3720002
-1.7176161 -0.51568747 2.3746669
-1.7149196 -0.50865382 2.3759999
-1.7091199 -0.50319827 2.3710001
-1.7010667 -0.36741287 2.3720002
-1.7002562 -0.35939482 2.3770001
-1.6973428 -0.35265106 2.3759999
-1.6957998 -0.34372297 2.3720002
-1.6958941 -0.33566356 2.375
-1.7522906 -0.97055036 2.388
-1.7478878 -0.97251731 2.3820002
-1.7526574 -0.94645756 2.3885002
-1.7510682 -0.93446612 2.3823335
-1.7454318 -0.92656022 2.3846667
-1.7398069 -0.92003721 2.3830001
-1.7376167 -0.91007531 2.3800001
-1.7424928 -0.90450859 2.3846667
-1.7456714 -0.89545321 2.3860002
-1.7511899 -0.88386953 2.3865001
-1.7466503 -0.88748503 2.3863335
-1.739769 -0.88258755 2.3890002
-1.7521436 -0.87552243 2.3818002
-1.7482488 -0.87247056 2.3855
-1.7419971 -0.86824054 2.3860002
-1.7388095 -0.86517972 2.3856666
-1.7427273 -0.85094535 2.3870001
-1.7386956 -0.85667074 2.3845
-1.7376167 -0.84404808 2.3800001
-1.7385901 -0.83571243 2.3813336
-1.7390407 -0.82701147 2.388
-1.7438385 -0.81511474 2.3855002
-1.7340155 -0.81445855 2.3854289
-1.7359453 -0.803496 2.3837502
-1.7278495 -0.8027299 2.3847501
-1.730963 -0.79542935 2.3860002
-1.7288131 -0.79562813 2.3800001
-1.7346241 -0.78505266 2.388
-1.7317185 -0.77491927 2.3840001
-1.729483 -0.77147967 2.3870001
-1.7309685 -0.76566666 2.3854003
-1.7309622 -0.75571167 2.3860002
-1.7265848 -0.74815005 2.3830001
-1.7265848 -0.7327224 2.3830001
-1.7287585 -0.72482181 2.3860002
-1.7234038 -0.715729 2.3826668
-1.7219366 -0.70397544 2.3826668
-1.7256892 -0.69472885 2.3842001
-1.7241991 -0.68417215 2.3827503
-1.7226561 -0.67782182 2.3836668
-1.7172285 -0.67269373 2.3863335
-1.7206534 -0.66552538 2.3870001
-1.7177701 -0.66881746 2.3830001
-1.7231628 -0.65541196 2.3823335
-1.732445 -0.64511609 2.3850002
-1.7291207 -0.64552319 2.3865001
-1.7309922 -0.63796592 2.3830001
-1.7253941 -0.63491058 2.3857143
-1.7252175 -0.62499911 2.381875
-1.7152768 -0.62323773 2.3856666
-1.7254626 -0.61411005 2.3845
-1.715036 -0.61653215 2.3853333
-1.725101 -0.60516083 2.3840001
-1.7206534 -0.5993039 2.3870001
-1.7155197 -0.59022701 2.3860002
-1.7116178 -0.58401519 2.3846667
-1.7128493 -0.57658219 2.3843334
-1.7210138 -0.56631136 2.3875
-1.7176766 -0.56003994 2.3890002
-1.7203314 -0.55875063 2.3835001
-1.7165102 -0.55329829 2.3853333
-1.7171845 -0.52607417 2.3852501
-1.7168519 -0.51596057 2.3854001
-1.7130032 -0.50343704 2.3825002
-1.7119248 -0.49431047 2.381
-1.7059736 -0.44147143 2.385
-1.7034144 -0.43550116 2.3845
-1.6992912 -0.42509884 2.388
-1.7544614 -0.97642672 2.3970003
-1.7549715 -0.96695042 2.3936667
-1.7542942 -0.95517743 2.39375
-1.7525197 -0.94281381 2.3923333
-1.7526315 -0.93555009 2.3945003
-1.7492981 -0.93391913 2.3960001
-1.7441056 -0.92361093 2.398
-1.7430922 -0.91530502 2.3960001
-1.7441159 -0.90475386 2.3970003
-1.7443162 -0.89486492 2.3952501
-1.7439795 -0.88581645 2.3917501
-1.7389824 -0.88221997 2.3940001
-1.7441622 -0.87705928 2.3920002
-1.7429247 -0.85319883 2.3933334
-1.7445025 -0.8428998 2.3955002
-1.7419219 -0.83607906 2.395
-1.7378545 -0.83182311 2.3955002
-1.7341015 -0.82531106 2.3946002
-1.7463777 -0.81291175 2.3920002
-1.7316566 -0.81665236 2.3900001
-1.7449175 -0.80781174 2.3900001
-1.7370907 -0.79482567 2.3975
-1.7294043 -0.79997402 2.3930001
-1.7374914 -0.78513634 2.395
-1.7331057 -0.77751964 2.3920002
-1.7322952 -0.75254536 2.3970001
-1.7262876 -0.74426198 2.3917501
-1.7322952 -0.73259479 2.3970001
-1.7281351 -0.73725265 2.3953335
-1.7282699 -0.72297019 2.3945003
-1.7253389 -0.71381932 2.3935001
-1.7259022 -0.70653868 2.3963335
-1.7266232 -0.69500846 2.3973334
-1.7235026 -0.68637818 2.3930004
-1.7191147 -0.67990708 2.391
-1.7231259 -0.66512382 2.3935001
-1.7260836 -0.65391976 2.3930001
-1.7256947 -0.64459932 2.3940003
-1.7212718 -0.63427019 2.3940001
-1.7186368 -0.63493299 2.3965001
-1.7205527 -0.61408794 2.3930001
-1.7182783 -0.61485779 2.3960001
-1.725731 -0.60793203 2.392
-1.7185577 -0.59524149 2.3943336
-1.7204297 -0.57125807 2.3990002
-1.7175611 -0.57473516 2.3950002
-1.7192353 -0.56569743 2.3942502
-1.7153668 -0.55383188 2.3940001
-1.7189953 -0.53088254 2.3970001
-1.7148081 -0.52363241 2.3942502
-1.7132981 -0.51516426 2.3940003
-1.7164189 -0.50639349 2.3965001
-1.7049841 -0.4420329 2.3960001
-1.7028491 -0.4348425 2.3930001
-1.7040353 -0.41520953 2.3946667
-1.7049795 -0.38568968 2.3960001
-1.7547363 -0.9825201 2.4065001
-1.7462465 -0.98149943 2.404
-1.7580591 -0.97645211 2.4080002
-1.7491519 -0.97867894 2.4080002
-1.7570232 -0.96453094 2.4005001
-1.7536319 -0.95413381 2.4060001
-1.754756 -0.94632095 2.4050002
-1.7499644 -0.93220323 2.4030001
-1.7469728 -0.92853105 2.4050002
-1.7437041 -0.90459406 2.4005001
-1.7408409 -0.884323 2.4057503
-1.7387993 -0.88886803 2.4060001
-1.7432798 -0.87330657 2.404
-1.7389021 -0.87777376 2.4000001
-1.7440302 -0.86479062 2.4033999
-1.7474246 -0.85682839 2.4076669
-1.7457333 -0.84603179 2.4082
-1.7418002 -0.83922088 2.404
-1.7365735 -0.83546919 2.4060001
-1.7314659 -0.82519644 2.4020002
-1.7350703 -0.81578171 2.4070001
-1.7357912 -0.80944204 2.4080002
-1.7439739 -0.79129893 2.4070001
-1.737354 -0.7969811 2.4040003
-1.7356291 -0.77390218 2.4036667
-1.7345394 -0.76445895 2.4038002
-1.7333269 -0.75617939 2.4015002
-1.7291806 -0.75060892 2.4050002
-1.7291806 -0.74393684 2.4050002
-1.7306819 -0.73473787 2.404
-1.7310414 -0.72599041 2.4045
-1.7295401 -0.71739817 2.4055002
-1.7263045 -0.70273268 2.401
-1.7270236 -0.69636256 2.4020002
-1.7251598 -0.68464583 2.4076669
-1.7234395 -0.67492008 2.4047503
-1.7266641 -0.66290438 2.4015002
-1.7256181 -0.65453136 2.4050002
-1.7228652 -0.64621401 2.4055002
-1.7213573 -0.63758147 2.4065001
-1.7176617 -0.62510955 2.4013336
-1.7240118 -0.6139484 2.404
-1.7258775 -0.60566968 2.4035001
-1.7209997 -0.59072453 2.4060001
-1.7185608 -0.58298379 2.4046669
-1.7178807 -0.57485086 2.4047501
-1.7173448 -0.56577986 2.404
-1.7173438 -0.53465641 2.4040003
-1.7125422 -0.52565557 2.4035001
-1.7145891 -0.51196504 2.4053335
-1.7096094 -0.51654816 2.4025002
-1.7177 -0.50364053 2.4045
-1.7088948 -0.44678286 2.4056668
-1.7052615 -0.43593988 2.4064002
-1.7052946 -0.42576689 2.4042501
-1.704144 -0.3951489 2.4073334
-1.7044444 -0.38301018 2.4056668
-1.7065274 -0.37507305 2.4023333
-1.7041013 -0.36524481 2.401
-1.7024227 -0.3565124 2.4070003
-1.6980442 -0.35028416 2.4050002
-1.7572467 -0.98071104 2.4130001
-1.7609338 -0.97482687 2.4150002
-1.7587032 -0.9725908 2.4150002
-1.7609797 -0.96469206 2.4120002
-1.7564406 -0.96425492 2.4165001
-1.7527392 -0.95398837 2.4154
-1.755739 -0.94539988 2.414
-1.7550621 -0.93937606 2.4100001
-1.7480769 -0.92374372 2.41575
-1.7478954 -0.91471177 2.4155002
-1.7504947 -0.90149921 2.4160001
-1.7486833 -0.90726066 2.4135003
-1.7483211 -0.89591694 2.4130001
-1.7442379 -0.8737933 2.4160001
-1.7439715 -0.86360645 2.4162502
-1.7442621 -0.85460311 2.4148002
-1.7427081 -0.84735203 2.4145002
-1.7386 -0.84306097 2.415
-1.7329656 -0.83469504 2.4123333
-1.7321609 -0.82648516 2.41225
-1.7363706 -0.81625426 2.415
-1.741558 -0.80319446 2.4160001
-1.7386 -0.80732858 2.415
-1.7437893 -0.7964946 2.4160001
-1.7442195 -0.78674245 2.4135001
-1.7392465 -0.77287418 2.4190001
-1.7392465 -0.76840025 2.4190001
-1.7356515 -0.7578826 2.414
-1.7297525 -0.75279367 2.4120002
-1.7283182 -0.74548352 2.4100001
-1.7319818 -0.73271865 2.4119999
-1.7283182 -0.73879755 2.4100001
-1.7290354 -0.72349799 2.4110003
-1.7283182 -0.71428239 2.4100001
-1.7314259 -0.70440221 2.4143336
-1.7304697 -0.69508874 2.4130001
-1.728868 -0.6940068 2.4170003
-1.7260069 -0.68616301 2.4130001
-1.723861 -0.67193806 2.4100001
-1.7280586 -0.66601098 2.4127502
-1.7230304 -0.65492183 2.4130001
-1.7199275 -0.65153849 2.4170001
-1.7236843 -0.64456451 2.4160001
-1.7199275 -0.64706826 2.4170001
-1.7254679 -0.62734169 2.4185002
-1.7250253 -0.61520189 2.4147501
-1.7269 -0.60368973 2.4163334
-1.7230297 -0.59541845 2.4130001
-1.7207339 -0.58399373 2.415
-1.7188601 -0.57295382 2.4155002
-1.7144022 -0.53531837 2.4130001
-1.7115537 -0.52294421 2.4115
-1.7140378 -0.51476687 2.4150002
-1.718954 -0.4763104 2.4125001
-1.7051007 -0.44479224 2.415
-1.7034001 -0.434506 2.4157503
-1.7058058 -0.42636266 2.4160001
-1.7075758 -0.39474458 2.4185002
-1.705026 -0.38481376 2.4170001
-1.7066277 -0.3761504 2.414
-1.7066066 -0.3659724 2.4146001
-1.703455 -0.35232323 2.4190001
-1.7581087 -0.97483587 2.4228001
-1.7542634 -0.96628475 2.4253333
-1.7519966 -0.95621186 2.4263334
-1.7487663 -0.95907325 2.4260001
-1.7600479 -0.94444323 2.4230001
-1.7567741 -0.94508982 2.4246666
-1.7560445 -0.93573302 2.4236667
-1.7521691 -0.90242922 2.4245
-1.7496397 -0.90784252 2.421
-1.7454402 -0.88449281 2.4245002
-1.7461967 -0.87478226 2.4286668
-1.7460769 -0.86349446 2.4285002
-1.7430223 -0.85300046 2.4263334
-1.7369239 -0.84326673 2.4219999
-1.7345904 -0.83309674 2.4250002
-1.7371895 -0.82654095 2.4254999
-1.7399654 -0.81795162 2.4200001
-1.7421225 -0.80104023 2.4230001
-1.7399654 -0.80452424 2.4200001
-1.7476014 -0.79803824 2.4275002
-1.750208 -0.78922147 2.4280002
-1.7440009 -0.78295326 2.4225001
-1.7420332 -0.77510512 2.4260001
-1.7386551 -0.76348639 2.4223335
-1.7345234 -0.75448328 2.427
-1.7318101 -0.745408 2.4242501
-1.7332387 -0.73592472 2.42625
-1.7332885 -0.72538042 2.4247501
-1.7342327 -0.7140944 2.4245
-1.7360209 -0.70585465 2.427
-1.7326024 -0.69281685 2.4285002
-1.7278619 -0.68284684 2.4250002
-1.7273114 -0.67483217 2.4236002
-1.7264359 -0.66436017 2.4229999
-1.7223086 -0.65552855 2.4235001
-1.7245984 -0.64490217 2.4256668
-1.7271823 -0.63522619 2.4230001
-1.7256203 -0.62454224 2.4250002
-1.7265381 -0.61206502 2.4200001
-1.7272515 -0.6078403 2.421
-1.7270435 -0.59139174 2.427
-1.723022 -0.5840559 2.4245
-1.7190061 -0.57449609 2.4219999
-1.7161151 -0.54476058 2.4242501
-1.7159424 -0.53461993 2.4240003
-1.7156247 -0.52377027 2.4256668
-1.7152302 -0.48398423 2.4229999
-1.711331 -0.4567295 2.427
-1.7074404 -0.45180598 2.4246666
-1.7010881 -0.44682959 2.4220002
-1.7083843 -0.40269861 2.4260001
-1.7062716 -0.39547953 2.4230001
-1.7042189 -0.38448179 2.4243336
-1.7055008 -0.37538815 2.4235001
-1.7087364 -0.36463469 2.4265001
-1.7069759 -0.35753468 2.424
-1.7568084 -0.97533458 2.4330003
-1.7522795 -0.96673763 2.434
-1.7478744 -0.96104991 2.4310002
-1.7626482 -0.95067978 2.4390001
-1.7540499 -0.9544726 2.4333334
-1.7491155 -0.95970166 2.4390001
-1.7626482 -0.94616884 2.4390001
-1.7597575 -0.94011354 2.4350002
-1.7545331 -0.93522578 2.434
-1.7538123 -0.92584008 2.4330003
-1.7559748 -0.91797268 2.4360001
-1.7566956 -0.90032059 2.437
-1.7515595 -0.89434302 2.4330001
-1.7451712 -0.86527228 2.4335001
-1.7439914 -0.85453892 2.4350002
-1.7416338 -0.84432554 2.4380002
-1.7368354 -0.8356142 2.4323332
-1.7441982 -0.8249734 2.4363337
-1.7393801 -0.82854468 2.4380002
-1.7476811 -0.81468248 2.437
-1.7464166 -0.80277282 2.4373333
-1.7486751 -0.79383034 2.4352503
-1.7476811 -0.78538609 2.437
-1.7439933 -0.77798617 2.4349999
-1.7395974 -0.77252972 2.4320002
-1.7402031 -0.76703942 2.4360001
-1.7387744 -0.76190805 2.434
-1.7355826 -0.75219858 2.4390001
-1.7352269 -0.74527889 2.4385002
-1.7336726 -0.7359401 2.4300001
-1.734386 -0.72275448 2.4310002
-1.7347847 -0.7145403 2.4336669
-1.7348615 -0.70496386 2.4316669
-1.7355826 -0.69806737 2.4390001
-1.7341595 -0.68848044 2.437
-1.725981 -0.66314602 2.4350002
-1.7223958 -0.65531117 2.4310002
-1.7289425 -0.64764947 2.4360001
-1.7291783 -0.63706571 2.4300001
-1.7296522 -0.62537915 2.437
-1.7320247 -0.61335325 2.434
-1.7291783 -0.61908853 2.4300001
-1.7323804 -0.60447633 2.4345002
-1.7307168 -0.59644949 2.4385002
-1.7298899 -0.59686261 2.4310002
-1.7252684 -0.58408666 2.434
-1.7156954 -0.54717988 2.4300001
-1.7164015 -0.53616381 2.4310002
-1.7164015 -0.52717334 2.4310002
-1.7174867 -0.49419251 2.4346669
-1.7138394 -0.48387986 2.4337502
-1.7102185 -0.458235 2.4350002
-1.7111551 -0.40441325 2.4363334
-1.7081668 -0.40702805 2.4385002
-1.7076156 -0.39285254 2.4345002
-1.7039442 -0.38543764 2.4303334
-1.7053457 -0.37375894 2.4323335
-1.7102185 -0.36366069 2.4350002
-1.707215 -0.36666241 2.4350002
-1.7102185 -0.35915715 2.4350002
-1.7557833 -0.97443151 2.4420002
-1.7610207 -0.95223892 2.4430001
-1.7549593 -0.95714885 2.4440002
-1.7624624 -0.94849646 2.4450002
-1.7549176 -0.94095659 2.4450002
-1.7549603 -0.93454742 2.444
-1.7455642 -0.93661594 2.4435
-1.7549584 -0.92550713 2.444
-1.7448498 -0.92719871 2.4425001
-1.7612789 -0.91514456 2.4465001
-1.7595791 -0.91534227 2.4410002
-1.7605591 -0.90798378 2.4455001
-1.7534109 -0.90101141 2.4450002
-1.7523427 -0.89594537 2.4435
-1.748181 -0.8938663 2.444
-1.750796 -0.88274318 2.4445002
-1.7492083 -0.88759613 2.4433334
-1.751192 -0.87729102 2.4440002
-1.7510421 -0.86816376 2.4480002
-1.748181 -0.862225 2.444
-1.746117 -0.85666353 2.4453335
-1.7443743 -0.84901172 2.4450002
-1.741987 -0.83420783 2.448
-1.7443724 -0.82414055 2.4450002
-1.7473871 -0.81585073 2.4449999
-1.7440143 -0.807019 2.4445002
-1.7378793 -0.80444938 2.4470003
-1.7441732 -0.79506445 2.4436667
-1.7391406 -0.79894245 2.444
-1.7460351 -0.78667516 2.4410002
-1.74239 -0.77343327 2.4443333
-1.7380732 -0.76457202 2.4425001
-1.7375875 -0.75404161 2.4450002
-1.7363949 -0.74320102 2.4465003
-1.7412754 -0.73203719 2.447
-1.7376314 -0.73716474 2.4440002
-1.741987 -0.72554588 2.448
-1.7361265 -0.71607304 2.444
-1.7335646 -0.70514309 2.4434285
-1.7284043 -0.70743459 2.4480002
-1.7347051 -0.69591564 2.4420002
-1.7327279 -0.68518943 2.4413335
-1.732846 -0.67394871 2.4415002
-1.7329319 -0.6689502 2.4480002
-1.7269921 -0.66387975 2.4460001
-1.7259331 -0.65669048 2.4445
-1.7333498 -0.6438356 2.4443333
-1.7279766 -0.64897877 2.4410002
-1.7328894 -0.63415188 2.4447503
-1.7316496 -0.62240052 2.4430003
-1.7286844 -0.62666225 2.4420002
-1.7344849 -0.61889386 2.447
-1.7324913 -0.60383242 2.4410002
-1.732224 -0.59400415 2.447
-1.7279766 -0.58577389 2.4410002
-1.7209584 -0.55229008 2.4460001
-1.7214119 -0.54366279 2.4445
-1.7161883 -0.50467277 2.4442225
-1.7154272 -0.49538985 2.4450002
-1.7139256 -0.48695013 2.4435
-1.7106185 -0.40083802 2.4420002
-1.7078487 -0.40350753 2.4445
-1.7085384 -0.39503241 2.4433336
-1.705054 -0.38479334 2.4405003
-1.7057604 -0.37642053 2.4447501
-1.7058192 -0.36512926 2.4448335
-1.7629733 -0.95347852 2.4520001
-1.7591555 -0.95386738 2.4530001
-1.7615353 -0.94590479 2.45
-1.7591555 -0.94706309 2.4530001
-1.7613069 -0.92550945 2.4560001
-1.7562847 -0.92676926 2.4553335
-1.7624978 -0.91359198 2.4545002
-1.756169 -0.90586221 2.4520001
-1.753649 -0.89671457 2.4580002
-1.7536491 -0.88534719 2.4580002
-1.753188 -0.87376082 2.4510002
-1.7479415 -0.8643418 2.45
-1.7480356 -0.84619141 2.4565001
-1.7410518 -0.83511192 2.4573333
-1.738879 -0.83262283 2.45
-1.7420645 -0.82279897 2.4545002
-1.7395886 -0.82616293 2.4510002
-1.7449206 -0.81600809 2.45
-1.7392688 -0.8157416 2.4537501
-1.7407187 -0.80839384 2.4590001
-1.7393029 -0.80319214 2.457
-1.7417136 -0.79464942 2.4540002
-1.7390919 -0.79523909 2.4535003
-1.7479895 -0.78608555 2.4532502
-1.7428976 -0.77398974 2.4556668
-1.7406533 -0.76316637 2.4525001
-1.7389489 -0.76441109 2.4565001
-1.7377464 -0.75490117 2.452667
-1.7345194 -0.74628741 2.4566669
-1.7420728 -0.73200965 2.4545002
-1.738595 -0.73927194 2.4560001
-1.7410082 -0.72475845 2.4530001
-1.737029 -0.72139603 2.4570003
-1.733494 -0.71539307 2.4520001
-1.7298163 -0.70121568 2.45
-1.7336714 -0.69505537 2.4522502
-1.7403648 -0.68318647 2.4585001
-1.7352619 -0.68888479 2.4545002
-1.7356178 -0.67313421 2.4550002
-1.7312708 -0.66499943 2.4585001
-1.7307205 -0.65484101 2.4545002
-1.7348576 -0.64361739 2.4550002
-1.7354647 -0.63531423 2.4580002
-1.7332686 -0.62583804 2.4565001
-1.7364714 -0.60453433 2.4530001
-1.7325947 -0.59525961 2.4578004
-1.7318319 -0.58610708 2.4549999
-1.7249678 -0.55757684 2.4560001
-1.7218072 -0.54521966 2.4515002
-1.7099471 -0.51173604 2.4540002
-1.7153542 -0.49317902 2.4520001
-1.7116913 -0.48824549 2.45
-1.7067983 -0.38042411 2.4560001
-1.7085357 -0.37399039 2.4585001
-1.7067983 -0.36452675 2.4560001
-1.6933687 -0.31644383 2.4530001
-1.7654788 -0.92434192 2.4650002
-1.7628126 -0.91727066 2.4623337
-1.7586432 -0.91066486 2.4650002
-1.7563142 -0.90495318 2.4659998
-1.752661 -0.8939842 2.4630003
-1.751624 -0.88550025 2.4647501
-1.7568965 -0.87673914 2.4657502
-1.7516145 -0.86460489 2.4636667
-1.7505262 -0.85649526 2.46
-1.7471502 -0.85384399 2.4668002
-1.7447276 -0.84368402 2.4646666
-1.7409822 -0.82663393 2.4636667
-1.7425252 -0.81135261 2.4680002
-1.7382889 -0.81620944 2.4620001
-1.738995 -0.80515355 2.4630001
-1.7468898 -0.7919696 2.4645
-1.7382889 -0.79799545 2.4620001
-1.752364 -0.78656602 2.4690001
-1.7468889 -0.77829528 2.4645
-1.7425252 -0.7657069 2.4680002
-1.7372564 -0.76083392 2.467
-1.7362795 -0.75534922 2.4640002
-1.7363157 -0.74370259 2.4656668
-1.7453201 -0.73529017 2.4655001
-1.7433918 -0.72859943 2.4660001
-1.7386649 -0.72491938 2.4690001
-1.7337356 -0.71603572 2.4620001
-1.7330368 -0.7041949 2.4636002
-1.7352648 -0.69524717 2.4663334
-1.738995 -0.68443656 2.4630003
-1.7381247 -0.67587245 2.4650002
-1.7319913 -0.66702855 2.4660001
-1.7331111 -0.65444624 2.4650002
-1.735252 -0.64393657 2.4620001
-1.733387 -0.63374013 2.4636667
-1.7339786 -0.62538886 2.4666669
-1.729532 -0.62445807 2.4690001
-1.7380435 -0.61470306 2.4665003
-1.7359273 -0.60484022 2.4635
-1.7340984 -0.59705955 2.4690001
-1.7232275 -0.56303471 2.46
-1.7241615 -0.55423355 2.4613335
-1.7190056 -0.51900965 2.467
-1.7112663 -0.37330493 2.4690001
-1.7072523 -0.37748873 2.4665
-1.6962736 -0.32423785 2.4605002
-1.7636373 -0.92467898 2.4720001
-1.7578449 -0.92752934 2.4735003
-1.7636373 -0.9178229 2.4720001
-1.7576421 -0.91251206 2.47
-1.7594615 -0.90208226 2.4790001
-1.7534572 -0.8952449 2.477
-1.7499213 -0.89039105 2.4720001
-1.7536241 -0.88196015 2.474
-1.7469727 -0.88527596 2.4756
-1.758397 -0.87633508 2.4775002
-1.7520418 -0.86629438 2.4750001
-1.7423582 -0.85804003 2.4710002
-1.7462214 -0.84855628 2.47
-1.7450026 -0.83297235 2.4780002
-1.7418337 -0.80630094 2.4735003
-1.7386637 -0.80237162 2.4755001
-1.7504605 -0.79108578 2.4760001
-1.7432398 -0.79633158 2.4733336
-1.7513372 -0.78587109 2.4740002
-1.7495856 -0.78255862 2.4780002
-1.7452339 -0.77366871 2.4740002
-1.7409506 -0.7657423 2.4755001
-1.7352601 -0.75719905 2.4750001
-1.7435942 -0.7407127 2.4760001
-1.7350267 -0.74641532 2.4746668
-1.745353 -0.73590803 2.4752502
-1.7411219 -0.72785544 2.4790001
-1.7390149 -0.72239524 2.4760001
-1.7404195 -0.71381265 2.4780002
-1.7390149 -0.71781588 2.4760001
-1.7369077 -0.69178832 2.473
-1.7411976 -0.68462133 2.4752002
-1.7369078 -0.67578179 2.473
-1.736537 -0.66366661 2.4790001
-1.7361867 -0.65665627 2.4785001
-1.735152 -0.64539933 2.4705
-1.7337313 -0.63512701 2.4750001
-1.7331575 -0.62369281 2.4720001
-1.727397 -0.62283897 2.4746668
-1.7336664 -0.61372554 2.4736001
-1.7284588 -0.61657137 2.4740002
-1.7331563 -0.60540491 2.4720001
-1.7347914 -0.59529823 2.4743335
-1.7277602 -0.56372321 2.473
-1.7226614 -0.52697206 2.47225
-1.7160076 -0.5248878 2.4732003
-1.7073911 -0.37345612 2.47
-1.7637081 -0.92373723 2.4817502
-1.7610644 -0.91327012 2.4845002
-1.7559401 -0.9141928 2.4870002
-1.7608811 -0.90739864 2.4810002
-1.759124 -0.90426558 2.4850001
-1.7568233 -0.88128555 2.4850001
-1.7492278 -0.8809309 2.4840002
-1.7543491 -0.87430334 2.48475
-1.746928 -0.8671484 2.4840002
-1.7513404 -0.83139795 2.4870002
-1.7456745 -0.8346886 2.4876668
-1.7520446 -0.8179276 2.4880002
-1.7426832 -0.81218189 2.4844999
-1.743542 -0.80904949 2.4890001
-1.7459303 -0.7950654 2.4836667
-1.7509978 -0.78777701 2.48
-1.7464697 -0.78537148 2.484
-1.7456943 -0.77505463 2.4833333
-1.742141 -0.76700199 2.4870002
-1.7389386 -0.75380856 2.4890001
-1.7423356 -0.74310595 2.4840002
-1.7439141 -0.73688185 2.4862502
-1.7400395 -0.72932351 2.4840002
-1.7386385 -0.72414577 2.4820001
-1.742141 -0.71410441 2.487
-1.7386385 -0.71955532 2.4820001
-1.7428415 -0.70519024 2.4880002
-1.7410902 -0.69528735 2.4855001
-1.7417908 -0.68636858 2.4865003
-1.7414404 -0.67933422 2.4860001
-1.7377405 -0.67189455 2.4840002
-1.7358104 -0.66455775 2.4823334
-1.735577 -0.65222853 2.4820001
-1.7366906 -0.64394236 2.4825001
-1.7334938 -0.63526773 2.4845002
-1.7273232 -0.62655252 2.4833333
-1.731548 -0.61471677 2.4850001
-1.7271605 -0.61856508 2.4820001
-1.7348185 -0.60431111 2.48475
-1.729109 -0.57484031 2.4815001
-1.7290844 -0.56385356 2.4836667
-1.7181056 -0.46543765 2.4855001
-1.7580583 -0.91069031 2.49
-1.7601764 -0.90717667 2.493
-1.7580583 -0.90147978 2.49
-1.7477449 -0.88021743 2.4950001
-1.7525551 -0.87915909 2.4920001
-1.7482972 -0.87472558 2.4925003
-1.7442424 -0.86924297 2.49
-1.7537642 -0.83012271 2.4970002
-1.7438254 -0.83209658 2.4960003
-1.7547303 -0.82604909 2.4940002
-1.7458338 -0.82231683 2.4966669
-1.7445717 -0.81484908 2.4926667
-1.7399095 -0.81626815 2.4970002
-1.745505 -0.80452394 2.4940002
-1.747745 -0.79484999 2.4950001
-1.7430704 -0.78471756 2.4936001
-1.744415 -0.77475512 2.4942002
-1.7424318 -0.76454818 2.4940002
-1.7396373 -0.7587167 2.49
-1.7418003 -0.74632007 2.49475
-1.7427543 -0.73612189 2.4966667
-1.7448771 -0.7263571 2.4974999
-1.7429154 -0.69416261 2.4980001
-1.7404261 -0.68441391 2.4933336
-1.7396373 -0.68963778 2.49
-1.7413032 -0.67364281 2.4990001
-1.7396373 -0.67582202 2.49
-1.7362068 -0.66564369 2.4950004
-1.7356852 -0.65621483 2.4942503
-1.7406063 -0.64565289 2.4980001
-1.737252 -0.64526427 2.4965
-1.7348161 -0.63744342 2.493
-1.7338156 -0.61353874 2.492667
-1.7358584 -0.60783958 2.4945002
-1.7366812 -0.58120471 2.4990001
-1.7356389 -0.57392764 2.4975002
-1.7214367 -0.46297434 2.4970002
-1.7186791 -0.46914983 2.493
-1.708429 -0.43430775 2.4915001
-1.7044464 -0.39256608 2.4946668
-1.7526485 -0.83178496 2.5020001
-1.7466238 -0.83112007 2.5
-1.7512474 -0.8264963 2.5
-1.7433935 -0.81327516 2.5020001
-1.7457063 -0.80633491 2.5020001
-1.7455928 -0.79408216 2.5035
-1.7373762 -0.78488255 2.5
-1.7437061 -0.77399236 2.5046668
-1.7482711 -0.7552253 2.5090001
-1.742 -0.74326873 2.5
-1.7426968 -0.7343148 2.5010002
-1.746467 -0.72499019 2.50475
-1.7518636 -0.71535254 2.5075002
-1.7501169 -0.70769125 2.5050001
-1.748147 -0.70319855 2.5055001
-1.7431638 -0.696105 2.5050001
-1.7427024 -0.68479812 2.506
-1.7431647 -0.67757392 2.5050001
-1.7389903 -0.67169809 2.5090001
-1.7386438 -0.66460454 2.5085001
-1.7380712 -0.65105391 2.5010002
-1.7387661 -0.64668679 2.5020001
-1.7369111 -0.63613629 2.506
-1.7348317 -0.62379438 2.503
-1.7389903 -0.613693 2.5090001
-1.7297095 -0.48144162 2.5090001
-1.7290201 -0.4766112 2.5080001
-1.7157884 -0.40255481 2.5090001
-1.7070559 -0.39696282 2.503
-1.750899 -0.80509496 2.5150001
-1.7484955 -0.80851918 2.516
-1.7510583 -0.7982595 2.513
-1.7491903 -0.79953015 2.5170002
-1.7478005 -0.77098584 2.5150001
-1.7505803 -0.76522374 2.5190001
-1.748968 -0.7648108 2.5100002
-1.7484953 -0.75500751 2.5160003
-1.7453681 -0.74436569 2.5115001
-1.748148 -0.73624456 2.5155001
-1.7507397 -0.71418357 2.517
-1.7471691 -0.71554208 2.5163333
-1.7471443 -0.70504534 2.5153999
-1.7431489 -0.69656187 2.5150001
-1.7396834 -0.69053477 2.5100002
-1.7408195 -0.68493682 2.5150001
-1.7396834 -0.68589252 2.5100002
-1.7410697 -0.67714715 2.5120001
-1.743611 -0.65487009 2.5156667
-1.7410697 -0.64462554 2.5120001
-1.7391887 -0.64099866 2.516
-1.7357324 -0.63275862 2.5110002
-1.7371149 -0.6239661 2.513
-1.7371149 -0.61467236 2.513
-1.740474 -0.59178221 2.5145001
-1.7285838 -0.48307264 2.5174999
-1.7266951 -0.47557002 2.5147502
-1.7188656 -0.44279236 2.5135002
-1.7188656 -0.43349212 2.5135002
-1.7212591 -0.42478675 2.5170002
-1.721601 -0.4155584 2.5175002
-1.7212591 -0.40849355 2.5170002
-1.713876 -0.40319657 2.513
-1.7109286 -0.39661953 2.5155001
-1.7449763 -0.77282518 2.5210001
-1.7400506 -0.7690767 2.5240002
-1.7521592 -0.753932 2.5280001
-1.7504265 -0.7438432 2.5255001
-1.748175 -0.74253583 2.529
-1.7506776 -0.73129666 2.5225
-1.7511078 -0.72493362 2.5220003
-1.7480006 -0.7218228 2.5220001
-1.7450643 -0.71553516 2.5245001
-1.7446266 -0.70579636 2.5272501
-1.7433919 -0.69603473 2.5243332
-1.7415605 -0.6851849 2.5245001
-1.7437222 -0.6757803 2.52425
-1.7471381 -0.66496289 2.5275002
-1.7419537 -0.64667845 2.5200002
-1.7434976 -0.63963324 2.529
-1.7367252 -0.59369403 2.5246
-1.7247881 -0.54140806 2.529
-1.722742 -0.53609395 2.526
-1.7313304 -0.48850372 2.5215001
-1.7280977 -0.48489556 2.5270002
-1.7265019 -0.47510907 2.5246668
-1.720014 -0.44662058 2.5220001
-1.71865 -0.44160566 2.5200002
-1.720014 -0.43262726 2.5220001
-1.71865 -0.4369449 2.5200002
-1.7210369 -0.42588419 2.5235
-1.7200462 -0.41590726 2.5243332
-1.7194304 -0.4102788 2.5280001
-1.7164788 -0.40490365 2.5236666
-1.7139893 -0.39033747 2.5200002
-1.7535455 -0.7709049 2.5300002
-1.7495575 -0.7712096 2.5310001
-1.7543644 -0.76540846 2.5366001
-1.7442547 -0.7649405 2.5335002
-1.7519768 -0.7558701 2.5345001
-1.7450081 -0.75926042 2.5380001
-1.7495575 -0.74780416 2.5310001
-1.7540112 -0.7363078 2.5357502
-1.7492852 -0.72291124 2.5340002
-1.7469445 -0.71588409 2.5340002
-1.744187 -0.70539552 2.5300002
-1.7456957 -0.69616514 2.539
-1.7456957 -0.68912131 2.539
-1.7448764 -0.6729067 2.5310001
-1.7462552 -0.66641033 2.533
-1.7479424 -0.65606433 2.5337501
-1.7448764 -0.64482015 2.5310001
-1.7445316 -0.63299191 2.5305002
-1.744187 -0.62584847 2.5300002
-1.7248716 -0.55463523 2.5360003
-1.7238514 -0.54492974 2.5345001
-1.724391 -0.53445578 2.5330002
-1.7265339 -0.48408687 2.5350001
-1.727044 -0.45609012 2.5357502
-1.7262321 -0.44710791 2.5380001
-1.7233076 -0.4350282 2.536
-1.7216744 -0.4254356 2.53475
-1.7206106 -0.4159902 2.5343335
-1.7154731 -0.40495023 2.5336668
-1.7163092 -0.39480966 2.5337501
-1.7517704 -0.76015794 2.5410001
-1.7527274 -0.75340986 2.544667
-1.7484951 -0.75709355 2.5465002
-1.7536465 -0.74595642 2.5460002
-1.7565962 -0.73397684 2.5480001
-1.7525165 -0.72854877 2.5455003
-1.7491335 -0.7234143 2.5440001
-1.7470708 -0.71551186 2.5410001
-1.7474146 -0.7062521 2.5415001
-1.7475634 -0.68420488 2.5439999
-1.7505085 -0.6721859 2.546
-1.7488389 -0.67480338 2.5469999
-1.7483237 -0.66518819 2.5462501
-1.7483242 -0.65576959 2.5462501
-1.746951 -0.64584327 2.54425
-1.7478186 -0.63550496 2.5462003
-1.7276428 -0.55703998 2.5469999
-1.7269645 -0.5474 2.546
-1.7323534 -0.53112942 2.5470002
-1.7347908 -0.52572554 2.5436668
-1.7339951 -0.49492565 2.5425
-1.7296327 -0.49266902 2.5430002
-1.7254553 -0.48642546 2.54725
-1.7242699 -0.43665847 2.5455003
-1.7188846 -0.43178087 2.5445001
-1.7192116 -0.42422056 2.5415001
-1.7188733 -0.41473931 2.5410001
-1.7188959 -0.40645587 2.5480001
-1.7533425 -0.75548607 2.5570002
-1.7553215 -0.74249887 2.553
-1.7566491 -0.73734409 2.5515001
-1.7540282 -0.72266436 2.5580001
-1.7526568 -0.71500832 2.5560002
-1.7516283 -0.70514005 2.5545001
-1.7505996 -0.69528198 2.5530002
-1.749639 -0.69677943 2.5585001
-1.7485425 -0.68267441 2.5500002
-1.7492737 -0.67473316 2.5556667
-1.7486134 -0.66326714 2.5570002
-1.7486134 -0.65380967 2.5570002
-1.7482715 -0.64422393 2.5565002
-1.749981 -0.6377551 2.559
-1.730356 -0.54139972 2.5510001
-1.7351041 -0.5381543 2.5580001
-1.7357543 -0.52509129 2.552
-1.7323749 -0.49648017 2.5505002
-1.7273302 -0.49301487 2.5570002
-1.730356 -0.46119234 2.5510001
-1.7276672 -0.4640947 2.5540001
-1.7319437 -0.45573416 2.5556669
-1.7305878 -0.44593272 2.5536668
-1.7290201 -0.44318697 2.5560002
-1.7219281 -0.43845966 2.5560002
-1.7168745 -0.43305355 2.552
-1.7205825 -0.42572284 2.5505002
-1.71822 -0.4263075 2.5540001
-1.7209197 -0.41637057 2.5510001
-1.7178836 -0.41677815 2.5535002
-1.7186686 -0.40515566 2.5546668
-1.7544 -0.75222492 2.5620003
-1.7574735 -0.74687833 2.5653334
-1.7577014 -0.7343176 2.5656669
-1.7557685 -0.72672772 2.5640001
-1.7523744 -0.71682709 2.5625
-1.7513487 -0.70693481 2.5610001
-1.7520325 -0.69062543 2.562
-1.7527164 -0.6837855 2.5630002
-1.7513862 -0.67324471 2.5680001
-1.7500222 -0.66797459 2.5660002
-1.7466235 -0.66284108 2.5645001
-1.7466122 -0.65483248 2.5610001
-1.7473017 -0.64382207 2.5643332
-1.7344317 -0.56312722 2.5640001
-1.7347701 -0.55612195 2.5645001
-1.7371376 -0.54975712 2.5680001
-1.7405305 -0.53034568 2.5660002
-1.7391739 -0.53467447 2.5640001
-1.7342008 -0.50299269 2.5636666
-1.7286632 -0.49474925 2.566
-1.7310389 -0.46390417 2.5660002
-1.7296897 -0.46828473 2.5640001
-1.7326177 -0.45599571 2.566
-1.7303643 -0.44949147 2.5650001
-1.7249384 -0.44671553 2.5654001
-1.7202054 -0.43983197 2.5640001
-1.7185006 -0.43288386 2.5650001
-1.7186822 -0.4255217 2.5635002
-1.7215472 -0.41644594 2.5660002
-1.7552973 -0.74276322 2.57025
-1.7568353 -0.73502105 2.5736668
-1.7566162 -0.72672588 2.5780003
-1.7557069 -0.71522933 2.5766668
-1.7534366 -0.70589978 2.5745001
-1.7530966 -0.69623911 2.5740001
-1.7546293 -0.68493718 2.5762503
-1.7520748 -0.67680204 2.5725002
-1.7486719 -0.66572171 2.5756669
-1.7483348 -0.6541369 2.5722501
-1.7398088 -0.57119149 2.5790002
-1.7374641 -0.56726182 2.572
-1.7362108 -0.55572599 2.5736668
-1.7422111 -0.54421532 2.5755
-1.7345155 -0.50656521 2.5754001
-1.7303296 -0.49828735 2.572
-1.7321237 -0.47499287 2.5746667
-1.7320116 -0.46305966 2.5745001
-1.7303296 -0.45547506 2.572
-1.7238652 -0.45327371 2.573
-1.7193949 -0.45159435 2.5770001
-1.7204812 -0.443497 2.5715001
-1.7173933 -0.44392863 2.5740001
-1.7178656 -0.43491769 2.5723336
-1.7207735 -0.42275113 2.5755
-1.7167261 -0.42709956 2.5730002
-1.7252004 -0.41552907 2.5750003
-1.7554786 -0.72438854 2.5810001
-1.753432 -0.71498084 2.5815001
-1.7513834 -0.70317984 2.582
-1.7472844 -0.70106357 2.5830002
-1.7537538 -0.69457018 2.5855
-1.7547749 -0.68301058 2.5870001
-1.7524009 -0.67492151 2.5835001
-1.7486373 -0.67292058 2.585
-1.7469462 -0.66510487 2.5825
-1.7500268 -0.65730387 2.5800002
-1.7476227 -0.6558069 2.5835001
-1.7465549 -0.60213643 2.5890002
-1.741158 -0.59550226 2.5810001
-1.7425072 -0.54580057 2.5830002
-1.7329526 -0.50997299 2.5830002
-1.7316108 -0.47377637 2.5810001
-1.73094 -0.46404937 2.5800002
-1.7274548 -0.45786577 2.5855002
-1.722613 -0.43933216 2.5890002
-1.7540489 -0.69418615 2.5930002
-1.7479041 -0.69604588 2.5910001
-1.7528981 -0.68636829 2.5936668
-1.7520196 -0.67901242 2.5900002
-1.7485787 -0.67474282 2.592
-1.7465172 -0.66048849 2.5925002
-1.748494 -0.60446221 2.5990002
-1.7437847 -0.59564328 2.592
-1.7474849 -0.58489418 2.5975003
-1.745803 -0.57473516 2.595
-1.743112 -0.56666112 2.5910001
-1.745803 -0.55793524 2.5950003
-1.7382113 -0.51293451 2.598
-1.7352715 -0.4773294 2.5960002
-1.7358695 -0.46665877 2.5945001
-1.7272706 -0.45732552 2.5960002
-1.7252744 -0.44720548 2.5929999
-1.7239437 -0.43248254 2.5910001
-1.7272705 -0.42611608 2.5960002
-1.7503963 -0.61643863 2.6090002
-1.7491667 -0.58545995 2.6000001
-1.7490544 -0.57257122 2.6070001
-1.7408875 -0.51853663 2.6020002
-1.7349222 -0.48346198 2.6075001
-1.7377431 -0.47327262 2.6045001
-1.7347406 -0.4652423 2.6000001
-1.7264502 -0.43191335 2.6020002
-1.7214441 -0.37999642 2.6090002
-1.7519997 -0.6226927 2.6150002
-1.7518646 -0.61486822 2.6160002
-1.7520008 -0.60576558 2.615
-1.752671 -0.59631974 2.6160002
-1.7509961 -0.57883251 2.6135001
-1.7482471 -0.57388902 2.6130002
-1.7495853 -0.5694918 2.615
-1.7364029 -0.49490601 2.6170001
-1.7350101 -0.48609236 2.6173334
-1.7405777 -0.47778192 2.6160002
-1.7419084 -0.46846321 2.618
-1.7373981 -0.45644492 2.6185002
-1.7340806 -0.44590968 2.6135001
-1.7330854 -0.43840417 2.6120002
-1.753089 -0.63295722 2.6275001
-1.753089 -0.58436435 2.6275001
-1.7492273 -0.58226538 2.6290002
-1.7507536 -0.57387745 2.6240001
-1.7482293 -0.57464337 2.6275001
-1.7337645 -0.49622887 2.6240001
-1.734095 -0.48661861 2.6245
-1.7422204 -0.47588709 2.6233335
-1.7388411 -0.4775424 2.6280003
-1.7375177 -0.45289779 2.6259999
-1.734871 -0.44493198 2.6220002
-1.7570921 -0.62466222 2.6335001
-1.7543979 -0.59643871 2.6343334
-1.7511117 -0.58613896 2.6355002
-1.7503365 -0.57450074 2.638
-1.7496731 -0.57916009 2.6370001
-1.7281961 -0.50055575 2.6340001
-1.7329768 -0.49287188 2.6363335
-1.7405787 -0.48179996 2.638
-1.7358307 -0.48603323 2.6345
-1.7431419 -0.46410832 2.6345
-1.7562646 -0.62697512 2.64325
-1.7568733 -0.61496592 2.6441667
-1.7539859 -0.59281194 2.6435003
-1.7514125 -0.58380413 2.6470001
-1.7528632 -0.57369089 2.6455002
-1.7459458 -0.53336024 2.643667
-1.7298672 -0.50245613 2.6440001
-1.7372024 -0.48534083 2.6440001
-1.7279044 -0.48723242 2.641
-1.7444439 -0.47679445 2.6463335
-1.7424195 -0.45608842 2.6445003
-1.7305214 -0.41459137 2.6450002
-1.7484963 -0.58446586 2.6500001
-1.7516695 -0.57435226 2.6523333
-1.7525973 -0.56294107 2.6525002
-1.7498159 -0.56773984 2.6520002
-1.7357556 -0.5090732 2.6530001
-1.7288916 -0.50359637 2.6500001
-1.7419746 -0.48244774 2.6550002
-1.7370641 -0.48244867 2.6550002
-1.729544 -0.48417425 2.651
-1.7341108 -0.47316188 2.658
-1.729544 -0.47927123 2.651
-1.7349379 -0.46535072 2.6555002
-1.7400062 -0.45983249 2.6520002
-1.7288916 -0.45703512 2.6500001
-1.7501748 -0.53993446 2.6600001
-1.739004 -0.51393807 2.6655002
-1.7450888 -0.47414231 2.6635001
-1.7537844 -0.54504788 2.6730001
-1.885219 -1.4541333 3.3780003
-1.886103 -1.4430473 3.3740001
-1.8881069 -1.4390774 3.3720002
-1.8850899 -1.4588684 3.3890002
-1.8874513 -1.4496001 3.3820002
-1.8900961 -1.4564581 3.3980002
-1.8917648 -1.4514538 3.4010003
-1.9006646 -1.4519624 3.4170001
-1.906227 -1.4498733 3.427
-1.9065413 -1.480392 3.4390001
-1.9048783 -1.4727457 3.4360001
-1.9048781 -1.4632106 3.4360001
-1.9057063 -1.4846967 3.4490001
-1.8954725 -1.4816834 3.4420002
-1.9051538 -1.4715121 3.4480002
-1.9015301 -1.4800323 3.4530001
-1.9068114 -1.4791751 3.4510002
-1.8951439 -1.4736459 3.4530001
-1.9081928 -1.4642761 3.4535003
-1.9058181 -1.4743514 3.4646671
-1.8942274 -1.4715089 3.4630001
-1.9088649 -1.4714501 3.4780002
-1.9119933 -1.4689116 3.4720001
-1.9002442 -1.4697578 3.4740002
-1.904722 -1.4717572 3.4940002
-1.904236 -1.5347332 3.5050001
-1.9053226 -1.5258806 3.5070002
-1.914466 -1.4742845 3.5000002
-1.9172602 -1.4749407 3.5170002
-1.9047923 -1.4728438 3.5120001
-1.9042507 -1.4684359 3.5170002
-1.9145585 -1.4713585 3.5240002
-1.9015232 -1.4648409 3.5240002
-1.9139967 -1.4661416 3.5350001
-1.9047607 -1.4608063 3.5300002
-1.9030718 -1.4579853 3.5390003
-1.9028029 -1.4152398 3.5385003
-1.9210354 -1.461693 3.5480001
-1.9125848 -1.4569702 3.5445001
-1.9073737 -1.454721 3.5470002
-1.9150131 -1.4424134 3.5490003
-1.9057235 -1.4441949 3.5480003
-1.9128547 -1.4342312 3.5450001
-1.9041471 -1.4326129 3.5410001
-1.8997416 -1.4342312 3.5450001
-1.9120452 -1.4237943 3.5435002
-1.9036095 -1.4256611 3.5400002
-1.9139339 -1.4153599 3.5470002
-1.9041471 -1.4064165 3.5410001
-1.9166318 -1.4502021 3.5520003
-1.9160922 -1.4103884 3.5510001
-1.958849 -1.5978687 3.8270001
-1.9538109 -1.5995388 3.8310001
-1.960441 -1.5978571 3.8440001
-1.9579048 -1.6015983 3.8530002
