# .PCD v0.7 - Point Cloud Data file format
VERSION 0.7
FIELDS x y z
SIZE 4 4 4
TYPE F F F
COUNT 1 1 1
WIDTH 1472
HEIGHT 1
VIEWPOINT 0 0 0 1 0 0 0
POINTS 1472
DATA ascii
-0.66775179 0.11156429 1.177
-0.68487072 0.10617511 1.1848001
-0.67375201 0.10937205 1.1827501
-0.66439921 0.10574317 1.1850002
0.79928875 0.077777579 1.1930001
-0.84119481 0.10405661 1.1958001
-0.83718252 0.10494315 1.1925
-0.69174343 0.10434799 1.194
-0.68444145 0.10696125 1.1986001
-0.67367309 0.10740423 1.193
-0.66855162 0.10348365 1.1926666
0.80495661 0.076124772 1.2088001
0.80330032 0.081056751 1.2090001
-0.69423932 0.10390195 1.2060001
-0.6849553 0.10516389 1.2034
-0.67748934 0.10448301 1.202
0.80561143 0.074619226 1.2135
0.81537914 0.070146225 1.2136668
0.82121694 0.070165493 1.2140001
-0.70533413 0.098114707 1.2160001
-0.6963591 0.099640779 1.2175
-0.68285036 0.096264511 1.2175001
-0.70298558 0.10171122 1.2153335
-0.69565743 0.10231771 1.2136668
-0.68742007 0.10364535 1.2116667
0.7566331 0.066756092 1.227
0.76419866 0.065810837 1.227
0.79613167 0.066486374 1.2290001
-0.68447471 0.089180455 1.2285001
-0.7121346 0.094121285 1.2262501
-0.70488793 0.097948939 1.2245001
-0.69499075 0.098148927 1.227
-0.68498325 0.091922425 1.2246667
-0.69294423 0.10092835 1.2222002
0.7558521 0.064422689 1.233
0.7957803 0.063603118 1.2337501
0.80205631 0.062267423 1.2355001
-0.86104363 0.089942679 1.2390001
-0.69040209 0.089507125 1.233
-0.67447007 0.087009273 1.2364
-0.85711992 0.091936447 1.2350001
-0.71446317 0.094283231 1.2358334
-0.70565093 0.096719608 1.2377501
-0.69574022 0.095842764 1.2338752
0.77589881 0.061737128 1.2432001
0.78394765 0.060363129 1.2433333
-0.72703147 0.085638888 1.243
-0.69506824 0.083786555 1.2448572
-0.68620831 0.083977111 1.2440001
-0.67727315 0.084585369 1.2445
-0.8607198 0.09026935 1.2435
-0.8576923 0.091764443 1.243
-0.72071862 0.090305649 1.244
-0.71546406 0.093972459 1.246875
-0.7056303 0.093692362 1.2462
-0.69888622 0.09130808 1.2420001
0.78670758 0.05543365 1.2567999
0.79203892 0.057177268 1.2542002
0.81877601 0.060929541 1.2550001
-0.70440048 0.079688579 1.258
-0.68059236 0.079625234 1.2570001
-0.73115635 0.08420784 1.256
-0.727184 0.087634273 1.2551666
-0.70607007 0.08653044 1.256
-0.69214386 0.08166755 1.2526667
-0.68448901 0.08345902 1.2535001
-0.67842656 0.081689276 1.253
-0.72100973 0.090922683 1.2525001
-0.71468449 0.091493949 1.2540001
-0.70942628 0.092078626 1.2525001
0.78949982 0.054267172 1.2620001
0.79547596 0.053064328 1.2651428
0.81621307 0.05418117 1.2600001
0.8223657 0.057699613 1.2605001
0.83518827 0.053036559 1.2605001
0.84565353 0.053459592 1.2650001
0.85244739 0.052035976 1.2645
-0.69767171 0.077648886 1.2626667
-0.68532717 0.076662675 1.2657501
-0.8892867 0.08243902 1.2645001
-0.87728834 0.08310727 1.2657501
-0.86712617 0.080322035 1.268
-0.73288608 0.08481124 1.2650001
-0.72376555 0.087913498 1.263375
-0.71493024 0.086427636 1.2642858
-0.69164193 0.080976576 1.2636001
-0.68796766 0.082276031 1.2620001
0.82314593 0.047864195 1.2780001
0.85271049 0.048908472 1.2745001
0.82454073 0.051348887 1.2765
0.84835351 0.051146828 1.2715001
0.85053295 0.050031349 1.273
-0.87611341 0.076022588 1.2746001
-0.7489 0.074359708 1.2730001
-0.7121194 0.074927963 1.276
-0.70645291 0.075635768 1.276
-0.69704676 0.078366339 1.2743334
-0.89230645 0.083156168 1.2755001
-0.88189387 0.083886646 1.2746668
-0.87829477 0.083997175 1.2739999
-0.73278189 0.085481681 1.2750001
-0.72495669 0.084196463 1.2770002
-0.71829319 0.082992554 1.273
0.82517993 0.045678545 1.2830001
0.85635072 0.044450887 1.2856668
0.86159712 0.043406893 1.286
-0.8950268 0.07609953 1.2838
-0.85876089 0.073980093 1.2800001
-0.75399262 0.07178057 1.2830001
-0.72344035 0.075022168 1.28775
-0.71622741 0.072512738 1.2855
-0.70418602 0.075428791 1.2845001
-0.69629413 0.071948409 1.286
-0.895455 0.08108218 1.2800001
-0.88243455 0.083449543 1.2800001
-0.74148488 0.083840713 1.286
-0.73520696 0.083938502 1.2875
0.82361698 0.041270904 1.2936001
0.83569688 0.04278158 1.296
0.85654563 0.044348445 1.2903334
0.86233598 0.045951504 1.2906667
-0.75869405 0.068645664 1.2910001
-0.72495544 0.067870721 1.299
-0.70329058 0.066438973 1.2945001
-0.90096235 0.072340041 1.2930001
-0.89887196 0.074558057 1.2900001
-0.88584125 0.070124455 1.2962501
-0.87908322 0.070110932 1.296
-0.73357612 0.075058967 1.2986667
-0.72556198 0.071535327 1.2958
-0.70512503 0.072793722 1.2926
-0.74293613 0.081884556 1.2926668
-0.73626864 0.082470462 1.2925
0.85510957 0.038171414 1.3022001
0.84846127 0.041491039 1.3005002
-0.73481649 0.068340957 1.3080001
-0.7253319 0.067648508 1.3040001
-0.71031845 0.068079717 1.3030001
-0.76200926 0.073235206 1.309
-0.7349025 0.070651911 1.306
-0.72181356 0.070435517 1.302
-0.71453577 0.071694568 1.3030001
-0.7512331 0.080252215 1.3050001
-0.74558109 0.080293216 1.3056668
-0.73923725 0.080129221 1.3030001
0.86886609 0.034657359 1.3150001
-0.9025386 0.061550513 1.3180001
-0.77456141 0.063988157 1.3180001
-0.74089932 0.067463599 1.3145001
-0.73505563 0.063880421 1.3158572
-0.72631496 0.067269072 1.3154
-0.76129085 0.076714277 1.3133334
-0.72211343 0.071057647 1.3135002
-0.71874523 0.071084693 1.314
-0.91238213 0.059516519 1.327
-0.7781781 0.059202567 1.3200001
-0.9319827 0.06164391 1.3200001
-0.91100705 0.061877411 1.325
-0.90894437 0.064182356 1.322
-0.77255791 0.066753 1.3243334
-0.76873589 0.069438174 1.3290001
-0.74615669 0.063150331 1.3260001
-0.73967654 0.06169061 1.3210001
-0.72694284 0.067643382 1.3260001
-0.77015913 0.071571574 1.3230001
-0.76613206 0.073691182 1.3245001
0.89913136 0.030155672 1.3310001
-0.94045526 0.057277236 1.332
-0.93728751 0.057234235 1.3310001
-0.78736752 0.056107193 1.3334999
-0.75054651 0.059920173 1.3360001
-0.74695575 0.058593158 1.3340001
-0.73351979 0.066119939 1.3365002
0.85698628 0.025516657 1.3460001
0.8616792 0.024298066 1.3475001
-0.94715542 0.054035172 1.34325
-0.93340009 0.055491772 1.3485
-0.92329937 0.054613091 1.3444288
-0.79582489 0.051300012 1.3432
-0.75560534 0.056592919 1.345
-0.9335801 0.062472302 1.3484
-0.92793506 0.06161432 1.3460001
-0.75583565 0.060144428 1.3410001
-0.74131393 0.062933475 1.3476667
-0.73639828 0.062763326 1.3440001
0.82854766 0.024462674 1.3565
0.86236262 0.021246389 1.3515
0.87216145 0.020720899 1.358
0.89168757 0.020649692 1.3533335
-0.93187034 0.048384365 1.3590001
-0.92730528 0.048277557 1.3560001
-0.93661046 0.054778248 1.3513335
-0.925699 0.050560769 1.35
-0.79704303 0.050635673 1.3520001
-0.76247072 0.054504368 1.355
0.86844671 0.017027441 1.3640001
0.87600744 0.016766848 1.3632002
0.88299817 0.017066743 1.3670001
0.86371315 0.02078956 1.3625001
0.87660533 0.020766674 1.3610001
-0.94482642 0.047398508 1.3668333
-0.93455768 0.04660191 1.362
-0.80551273 0.046534866 1.3638
-0.77105379 0.051234912 1.368
-0.76781696 0.052363336 1.3645
0.87396473 0.015906645 1.376
0.89437419 0.014465551 1.3772857
-0.93575275 0.042874329 1.3758001
-0.92843044 0.042516589 1.3725002
-0.81246233 0.041354872 1.376
-0.80824405 0.043740265 1.3710001
-0.77159292 0.051609438 1.378
0.8750571 0.0070616305 1.3885
0.87476373 0.010894493 1.386
0.90578347 0.011713129 1.3818334
0.91211182 0.012590948 1.3843335
-0.94277084 0.03786486 1.388
-0.81718314 0.037116736 1.3840001
-0.9443177 0.041670442 1.3865001
-0.81569898 0.043000005 1.388
-0.78119922 0.048062094 1.386
-0.7740187 0.047935858 1.3823334
-0.80921388 0.051815424 1.3835001
-0.7701605 0.051684342 1.3800001
0.8852663 0.0083941966 1.3965001
-0.95200264 0.038028542 1.3940001
-0.95055634 0.041775633 1.3900001
-0.81840432 0.044569768 1.3970001
-0.78627443 0.046228465 1.3950001
0.89391321 0.0058425777 1.4039999
0.93189877 0.0032470324 1.4045
-0.887977 0.029316923 1.409
-0.96286565 0.037108414 1.4080001
-0.82476538 0.035996679 1.4052
-0.79377401 0.039656103 1.4060001
-0.78874797 0.039599694 1.404
-0.82250512 0.042196393 1.404
-0.81815648 0.044697385 1.401
-0.78835821 0.04210623 1.401
0.93707234 0.0015213698 1.4103333
-0.82921559 0.029358536 1.411
-0.8254562 0.03856004 1.4135001
-0.79641676 0.037240192 1.4130001
0.90527868 -0.0032995122 1.4260001
0.93677092 -0.0072492398 1.42575
0.95008469 -0.0019724942 1.4220001
0.96330678 -0.0059350524 1.4260001
-0.8036024 0.03427856 1.42575
0.87496412 -0.0079470798 1.4325001
0.90782356 -0.0046283794 1.4300001
-0.97700858 0.029847499 1.4345
-0.80656099 0.032421313 1.431
0.88175762 -0.012720876 1.4480001
0.91287017 -0.012726194 1.4485002
0.96544433 -0.01265938 1.4410001
0.91586667 -0.015767643 1.451125
-1.0463139 0.014166725 1.4590001
-1.0518882 0.014205565 1.4630001
-0.91201729 0.011476162 1.46
-0.86383271 0.011499743 1.4630001
-1.0202446 0.0088480189 1.4720001
-0.87440979 0.0061338744 1.4740002
-0.86447632 0.0088420082 1.4710001
-1.0625234 0.011586207 1.4740001
-1.0596399 0.014273534 1.47
-1.0195515 0.011562626 1.4710001
-0.86388862 0.011554766 1.47
0.92598909 -0.027220052 1.4877144
0.93682837 -0.023951054 1.48
0.99901372 -0.029564757 1.4870001
1.0031114 -0.029604521 1.4890001
-0.92565125 0.0025194075 1.4855
-0.91563815 0.0025182515 1.4863334
-0.88462681 0.0019052958 1.4855556
-0.87741315 0.0034354506 1.4860001
0.96796012 -0.029624403 1.4900001
-0.89528143 -0.0020772221 1.4975001
-0.92510629 0.00068986433 1.4920001
-0.878398 0.00068893959 1.4900001
0.90265489 -0.035549976 1.5075001
-0.93397975 -0.0045293155 1.5057501
-0.90453446 -0.0048743631 1.5060002
-0.8943308 -0.0039489958 1.506
-0.91578722 -0.0077075227 1.5154001
-0.91594964 -0.010576841 1.525
-0.90927821 -0.010597648 1.5280001
-1.0329474 -0.0049423324 1.5270001
-0.91014004 -0.0077309194 1.5200001
-0.90622079 -0.0077334624 1.5205001
-0.92599946 -0.013502752 1.5370001
-0.91635275 -0.013507146 1.5375001
-1.034665 -0.0068497858 1.5323334
0.91333139 -0.047769871 1.5420001
-1.0486594 -0.010722489 1.5460001
-0.9608252 -0.017862031 1.5450001
-0.93858308 -0.016416335 1.5436668
-0.92803794 -0.016457103 1.5475001
-0.96809286 -0.022346148 1.559
-0.93537647 -0.02232226 1.5573334
-0.96537083 -0.019350417 1.5500001
-0.95564497 -0.019356661 1.5505002
-0.94191384 -0.019369144 1.5515001
-0.93549573 -0.018226197 1.5518
-0.92717385 -0.01795439 1.5532501
-0.96602815 -0.02450333 1.5650002
-0.95453614 -0.024161436 1.5642
-0.93543786 -0.024840662 1.5646667
-0.84446192 -0.025326621 1.5650001
-1.0432327 -0.018097958 1.56575
-0.93018126 -0.016675113 1.5680001
-0.92780095 -0.016625175 1.5640001
-0.96444511 -0.027199518 1.5728
-0.95902586 -0.026903555 1.5725001
-0.93618524 -0.026056251 1.5742
-0.84715986 -0.028311256 1.5700001
-0.86035103 -0.031592734 1.5890001
-0.93870425 -0.025657991 1.5856667
-0.94648051 -0.033144467 1.5930002
-0.86548257 -0.034678746 1.5957501
-0.94029158 -0.028671909 1.59
1.0749307 -0.093954712 1.6
-0.95213068 -0.037847754 1.605
-0.94714129 -0.033683971 1.6046002
-0.86980933 -0.037753429 1.6010001
-0.98436731 -0.042603977 1.6165
-0.88094753 -0.041095942 1.6160001
-0.9515146 -0.038001031 1.6115
-0.87903953 -0.036534838 1.6125001
-0.99481016 -0.045868926 1.62625
-0.95251411 -0.044978153 1.6242223
-0.94731838 -0.041384153 1.6273333
-0.9358573 -0.041409582 1.6283334
-0.92964309 -0.041401107 1.628
-0.89050019 -0.041401107 1.628
-0.88394582 -0.04573565 1.6215
1.0984448 -0.10508178 1.6350001
1.100795 -0.10501751 1.6340001
-0.99710828 -0.045974001 1.6300001
-0.95003754 -0.047539607 1.6320001
-0.94482738 -0.045280378 1.6321251
-0.93479168 -0.046098668 1.634375
-0.92509335 -0.044012517 1.6354002
-0.89515769 -0.045160223 1.6332
-0.92491502 -0.053711534 1.6452999
-0.91562867 -0.054039631 1.6461111
-0.92284614 -0.047772642 1.6400001
0.18384175 -0.1717571 1.8666668
0.20448314 -0.17169577 1.8660002
0.20546629 -0.1759917 1.875
0.27428827 -0.17564754 1.8713335
0.20487192 -0.18046449 1.8855001
0.21376316 -0.18060806 1.8870001
0.27614304 -0.18032092 1.8840002
0.28538445 -0.18065593 1.8875
-0.13521464 -0.17359738 1.8866668
0.20949312 -0.17993808 1.8800001
0.99483204 -0.19931762 1.899
0.20535855 -0.18491232 1.8953334
0.2146174 -0.18307552 1.8945
0.27834222 -0.1852688 1.899
0.28521636 -0.18517125 1.8980001
-0.13405886 -0.17786895 1.8950001
0.99737489 -0.1977171 1.9005001
-0.1332141 -0.18261801 1.9080001
0.12407964 -0.18391705 1.9031668
0.20523234 -0.18585417 1.9050001
0.2156945 -0.18751457 1.904
0.23434432 -0.18744168 1.9068
0.27579609 -0.18709612 1.9056667
0.28596711 -0.18917865 1.9030002
-0.13975717 -0.17843212 1.9010001
0.11801073 -0.19076923 1.9190001
0.12330285 -0.19071952 1.9185002
0.20620193 -0.19027217 1.914
0.22401865 -0.19037157 1.9150001
0.23488724 -0.19411589 1.9170002
0.24466427 -0.19187005 1.9158001
0.27374667 -0.19047099 1.9160001
0.28777099 -0.19391337 1.9150001
0.29131278 -0.19391337 1.9150001
-0.1345506 -0.18589786 1.9145
-0.12982118 -0.18280943 1.9100001
-0.06638588 -0.1849957 1.9143333
0.11039217 -0.18634197 1.9100001
0.23061952 -0.18997394 1.9110001
0.27656671 -0.18997394 1.9110001
0.31712884 -0.18992424 1.9105
0.32604828 -0.18997394 1.9110001
0.23992714 -0.2024664 1.9290001
0.2506302 -0.2024664 1.9290001
0.72597426 -0.202204 1.9265001
-0.095321499 -0.19153136 1.9266667
-0.070461877 -0.19176333 1.9290001
-0.065060169 -0.19161421 1.9275
0.11297962 -0.19126627 1.924
0.12899354 -0.19126628 1.9240001
0.21673715 -0.19533102 1.9290001
0.22538035 -0.19509475 1.9266667
0.23594733 -0.19855501 1.9256668
0.24607874 -0.19692452 1.9213333
0.253539 -0.19601148 1.9240001
0.2836355 -0.19472346 1.9230001
0.29747695 -0.19269478 1.9205
-0.075499922 -0.18741515 1.921
-0.055928949 -0.18731759 1.9200001
-0.04354468 -0.18751271 1.9220002
0.23536465 -0.20314863 1.9355001
0.25512034 -0.20320112 1.9360001
0.50934553 -0.20320112 1.9360001
0.51458585 -0.20314863 1.9355001
-0.13713574 -0.19270773 1.9385002
-0.10470888 -0.1924095 1.9355001
-0.095717289 -0.19590484 1.9346668
-0.085879438 -0.19323149 1.9347502
-0.074257977 -0.19355458 1.9350001
-0.065414116 -0.19624236 1.9380001
-0.056276653 -0.19206156 1.9320002
-0.045619827 -0.19232666 1.9346668
0.11549294 -0.19607359 1.9363333
0.12449231 -0.19614109 1.937
0.21171437 -0.1956348 1.932
0.22993706 -0.19951737 1.9350001
0.25664803 -0.19941425 1.934
0.28395841 -0.19975795 1.9373335
0.29410413 -0.19934551 1.9333334
0.78650081 -0.21123165 1.9440001
0.79328525 -0.21112299 1.9430001
-0.094574302 -0.2008578 1.9480001
-0.074696623 -0.20068596 1.9463334
-0.065750733 -0.20085779 1.9480002
0.11444858 -0.2009609 1.9490001
0.22479904 -0.20142341 1.9447501
0.23484887 -0.20605305 1.9460001
0.24517417 -0.20745821 1.9423333
0.25624138 -0.20589098 1.9445001
0.27702186 -0.20199001 1.9473333
0.28392601 -0.20486325 1.9432502
0.29552332 -0.20390086 1.9426666
0.30442715 -0.20185252 1.9460001
0.34541139 -0.20192738 1.9444002
0.36471695 -0.20258383 1.9438002
0.50759357 -0.20393583 1.9430001
0.51610547 -0.20806345 1.9480001
0.73540926 -0.20742261 1.9420002
-0.17542391 -0.19342017 1.9456667
-0.14449376 -0.19295627 1.9410001
-0.13186027 -0.19285685 1.9400001
-0.10342185 -0.19695118 1.9450001
-0.083527915 -0.19669804 1.9425001
-0.07632526 -0.19664741 1.9420002
-0.060161535 -0.19664741 1.9420002
-0.054914959 -0.1971537 1.9470001
-0.045936089 -0.19725497 1.9480001
0.73565912 -0.21264422 1.9570001
0.80397195 -0.21204659 1.9515002
-0.10212374 -0.20152801 1.9545001
-0.09505979 -0.20551021 1.9580001
-0.085088938 -0.20288375 1.9536002
-0.074900679 -0.20484547 1.9516668
-0.064222582 -0.20412879 1.9563335
-0.042572305 -0.20199201 1.9590001
0.1093213 -0.20147645 1.9540001
0.11660448 -0.20399316 1.955
0.12623037 -0.20275229 1.9546667
0.15769427 -0.20292477 1.9563333
0.19545242 -0.20304835 1.9552
0.22292975 -0.20488048 1.9520001
0.23399903 -0.20870432 1.9540001
0.25722876 -0.20849068 1.9520001
0.26639351 -0.20498542 1.9530001
0.27458891 -0.20503977 1.9535002
0.28581744 -0.20827708 1.95
0.29016611 -0.20881112 1.955
0.30777198 -0.20488046 1.9520001
0.31413022 -0.20400506 1.95225
0.32401893 -0.20488046 1.9520001
0.35434151 -0.20467055 1.95
0.37527543 -0.20798913 1.9557501
0.51355499 -0.20849068 1.9520001
-0.1438515 -0.19813256 1.9566668
-0.10745932 -0.19776127 1.9530001
0.74995005 -0.22271244 1.9660001
0.75377786 -0.22276862 1.9665
-0.071849927 -0.21009283 1.9670001
-0.068281315 -0.21030644 1.9690001
0.19564036 -0.21019964 1.9680001
0.20120226 -0.21030644 1.9690001
0.21736877 -0.21009283 1.9670001
0.23377676 -0.21376701 1.9673334
0.24246512 -0.21340482 1.9640001
0.27375731 -0.21009283 1.9670001
0.28420088 -0.21428807 1.9637501
0.313775 -0.21009283 1.9670001
0.33583033 -0.21023524 1.9683334
-0.15560232 -0.20291999 1.9680001
-0.1044713 -0.20499729 1.9646667
-0.089719355 -0.20572014 1.96
-0.060843077 -0.20613998 1.9640001
-0.055379875 -0.202456 1.9635
-0.046301592 -0.20427267 1.9635001
-0.037835885 -0.20371835 1.9640001
0.12234458 -0.20572014 1.96
0.16428588 -0.20603502 1.9630002
0.20593005 -0.20593005 1.9620001
0.21126541 -0.20582509 1.9610001
0.22588496 -0.20955878 1.962
0.26426059 -0.20977241 1.9640001
0.27683118 -0.20966558 1.9630001
0.29672512 -0.20961219 1.9625001
0.30629131 -0.2099504 1.9656668
0.31725159 -0.20998602 1.9660001
0.32435939 -0.2098792 1.9650002
0.34587017 -0.20970118 1.9633335
0.3548885 -0.20966558 1.9630001
0.36396495 -0.20966558 1.9629999
0.38192314 -0.20955878 1.9620001
0.74594593 -0.22281592 1.9766001
0.81406677 -0.22201794 1.9760001
-0.10334834 -0.21126771 1.9780002
-0.096029855 -0.21126771 1.9780002
-0.084951565 -0.2110007 1.9755001
-0.064705297 -0.21052006 1.9710001
-0.042985208 -0.21126772 1.978
-0.039287128 -0.2110541 1.9760001
0.11434224 -0.21130331 1.9783335
0.18565859 -0.21126771 1.9780002
0.19056717 -0.21062687 1.9720001
0.20703259 -0.21068028 1.9725001
0.21521132 -0.21460497 1.975
0.22372951 -0.21642859 1.975
0.23452999 -0.21810548 1.9736668
0.2436384 -0.21808706 1.9735001
0.26431328 -0.21492603 1.978
0.27549064 -0.21524739 1.9742
0.28525198 -0.21781079 1.9710002
0.29313454 -0.21643014 1.9750001
0.32639214 -0.2148536 1.9773334
0.33518401 -0.21645546 1.9752501
0.34379497 -0.21578674 1.9775001
0.35641459 -0.21567807 1.9765
0.36464161 -0.21476305 1.9765
0.37368211 -0.21470873 1.976
0.38262922 -0.21460006 1.9750001
-0.16362624 -0.20506741 1.9770001
-0.15514377 -0.20534064 1.9737501
-0.10855977 -0.20708461 1.973
-0.053806182 -0.20701462 1.9723334
-0.033122275 -0.20572954 1.9716668
0.22520465 -0.22336625 1.988
0.23623508 -0.22336625 1.988
0.2435887 -0.22336625 1.988
0.27477109 -0.22331005 1.9875001
0.28370023 -0.22310407 1.9856668
0.29138723 -0.22336625 1.988
0.33743268 -0.22342242 1.9885001
0.73644662 -0.22286063 1.9835
0.74471503 -0.22681463 1.9860001
0.98690248 -0.22675753 1.9855001
-0.10566703 -0.21593297 1.9872501
-0.09063486 -0.21148133 1.9800001
-0.072434366 -0.21546933 1.983
-0.065807603 -0.21611814 1.9822
-0.050556146 -0.21233581 1.988
-0.046690684 -0.21148133 1.9800001
-0.033906002 -0.21169496 1.9820001
0.06521368 -0.21217559 1.9865
0.08172673 -0.21212219 1.9860001
0.10362053 -0.21183737 1.9833335
0.12553205 -0.21165936 1.9816667
0.16581713 -0.21162374 1.9813334
0.19618919 -0.21711428 1.9846001
0.20472486 -0.21757984 1.9855001
0.21237649 -0.21665625 1.9826669
0.26522085 -0.21786991 1.9848001
0.27231655 -0.21730496 1.983
0.29806462 -0.21736114 1.9835001
0.30558243 -0.21565044 1.9846668
0.31644604 -0.21647048 1.9837501
0.32415023 -0.21946841 1.9860001
0.33049682 -0.21880537 1.9800001
0.34750158 -0.21913689 1.983
0.35465688 -0.21902639 1.9820001
0.36547136 -0.21891588 1.9810002
0.37469253 -0.21895272 1.9813334
0.38614079 -0.21798806 1.9836668
0.51908827 -0.21957892 1.9870001
0.52460158 -0.21957892 1.987
0.5658173 -0.21917373 1.9833332
-0.16600046 -0.20818669 1.9835001
-0.14769292 -0.20823917 1.9840001
-0.11455447 -0.20802924 1.9820001
0.74368024 -0.23188043 1.9980001
-0.10603289 -0.22035247 1.9940001
-0.096806645 -0.22035247 1.9940002
-0.061772451 -0.22035247 1.9940001
-0.039744418 -0.22090501 1.9990001
0.10814179 -0.22090501 1.9990001
0.1894792 -0.22090501 1.9990001
0.19249989 -0.22013146 1.9920001
0.216607 -0.22398421 1.9935001
0.24763864 -0.22370331 1.9910001
0.25590178 -0.22448981 1.9980001
0.26624811 -0.22479384 1.9925002
0.27391991 -0.22780442 1.9946667
0.28930238 -0.22829932 1.9990001
0.29432863 -0.2260575 1.9955001
0.30337742 -0.22162169 1.9943334
0.31439781 -0.22158425 1.9940001
0.32567486 -0.22419019 1.9953333
0.33233291 -0.22370331 1.9910001
0.34565604 -0.22398421 1.9935001
0.35501921 -0.22407784 1.9943336
0.36559591 -0.2237782 1.9916668
0.37450325 -0.22519787 1.9933335
0.38319701 -0.22437745 1.9970001
0.39757317 -0.22046298 1.9950001
0.49769321 -0.22437745 1.9970001
0.55180037 -0.22460216 1.9990001
0.74716216 -0.22755697 1.9925001
0.81390095 -0.22767119 1.9935001
-0.16331498 -0.21313688 1.9955001
-0.15386534 -0.21283424 1.9926668
-0.14688839 -0.2134039 1.9980001
-0.11536455 -0.21319029 1.9960001
-0.10966022 -0.21655591 1.9930001
-0.096684813 -0.21639292 1.9915001
-0.072690062 -0.21991044 1.9900001
-0.061679512 -0.21633859 1.9910001
-0.05616869 -0.21270964 1.9915001
-0.045245759 -0.21699055 1.9970001
-0.039585359 -0.21633859 1.9910001
-0.028581284 -0.21297666 1.9940001
0.065410651 -0.21650158 1.9925001
0.070992216 -0.21666457 1.9940001
0.10424936 -0.21680945 1.9953333
0.12650087 -0.21699055 1.9970001
0.13388778 -0.21699055 1.9970001
0.18701912 -0.21650158 1.9925001
0.21070917 -0.21991044 1.9900001
0.47938636 -0.21991044 1.9900001
0.24599598 -0.23300231 2.0076666
0.25513446 -0.23286691 2.0065002
0.26416472 -0.23265414 2.004667
0.28496367 -0.23298296 2.0075002
0.30174631 -0.23304099 2.0080001
0.32233262 -0.23315704 2.0090001
0.36692044 -0.23315704 2.0090001
0.37539566 -0.23265414 2.0046666
0.38502038 -0.23286691 2.0065002
0.7444278 -0.23429477 2.006
0.75334144 -0.23544009 2.0073335
0.81837195 -0.23315704 2.0090001
0.82024616 -0.2344889 2.0045002
-0.11425624 -0.22201009 2.0090001
-0.062051263 -0.2250516 2.003
-0.05476037 -0.22182591 2.0073335
-0.045426086 -0.22156806 2.0050001
0.063887976 -0.22131021 2.0026667
0.07134825 -0.22145756 2.0040002
0.1028499 -0.22145756 2.0040002
0.12719767 -0.22189958 2.0080001
0.1344676 -0.22164173 2.0056667
0.14581569 -0.22197326 2.0086668
0.15512839 -0.22201009 2.0090001
0.16417015 -0.22167857 2.0060003
0.17527442 -0.22164173 2.0056667
0.1843926 -0.22145756 2.0040002
0.19580357 -0.22550103 2.007
0.20494907 -0.22535121 2.0056667
0.21595275 -0.22707427 2.0045002
0.22510731 -0.22881326 2.0035
0.23431297 -0.22875614 2.003
0.24534495 -0.22868001 2.0023334
0.25507039 -0.22909877 2.006
0.26222521 -0.22887036 2.0040002
0.28397003 -0.22847064 2.0005002
0.29684511 -0.22841354 2
0.30500498 -0.22651239 2.0050001
0.31620735 -0.22718847 2.0055001
0.32523683 -0.22887036 2.0040002
0.33461347 -0.22894649 2.0046668
0.34174502 -0.22875614 2.003
0.35379699 -0.22936524 2.0083334
0.36427459 -0.22894649 2.0046668
0.37461692 -0.22847064 2.0005002
0.38482848 -0.22904167 2.0055003
0.39446339 -0.22553849 2.0073335
0.49412704 -0.22651486 2.0050001
0.50531048 -0.22716177 2.0052502
-0.17499876 -0.21388453 2.0025001
-0.16931407 -0.21372432 2.0010002
-0.15502667 -0.21814956 2.0076668
-0.14383809 -0.21560311 2.0070002
-0.13378404 -0.21535389 2.004667
-0.12583384 -0.21553063 2.0040002
-0.11594252 -0.21796846 2.006
-0.054660346 -0.21771492 2.0036669
0.060108826 -0.21731652 2
0.22445975 -0.23377602 2.0143335
0.2352872 -0.23342784 2.0113335
0.28472856 -0.23805174 2.0190001
0.30528393 -0.23633911 2.0150001
0.31323829 -0.23306629 2.0162501
0.32855898 -0.23362127 2.013
0.3339785 -0.23350522 2.0120001
0.34184188 -0.23379534 2.0145001
0.35508764 -0.23393075 2.0156667
0.3617067 -0.23338915 2.0110002
0.49521488 -0.23035505 2.0170002
0.50445944 -0.2340468 2.0166667
0.51149601 -0.23012663 2.0150001
0.54744112 -0.23221841 2.0170002
0.5535292 -0.23350522 2.0120001
0.74108028 -0.2371085 2.0110002
0.81793612 -0.23542383 2.0125
-0.15574798 -0.22289415 2.017
-0.14645493 -0.22294942 2.0174999
-0.13509643 -0.22267313 2.0150001
-0.12577586 -0.22267313 2.0150001
-0.11643057 -0.22448218 2.0145001
-0.054976147 -0.22643733 2.0153334
0.05496582 -0.22267315 2.0150001
0.066215418 -0.22662459 2.0170002
0.077215791 -0.22234161 2.0120001
0.084742345 -0.22256263 2.0139999
0.094097279 -0.22267313 2.0150001
0.11445575 -0.22239687 2.0125
0.12186833 -0.22234161 2.0120001
0.18554321 -0.22656842 2.0165
0.19080621 -0.22617517 2.013
0.21686755 -0.22989821 2.013
0.30591646 -0.22966981 2.0110002
0.31366679 -0.22989821 2.013
0.3468293 -0.22966981 2.0110002
0.54767418 -0.22966981 2.0110002
-0.18558969 -0.2191637 2.0170002
-0.17261773 -0.21927236 2.0180001
-0.1647881 -0.21878341 2.0135002
-0.14247641 -0.21883774 2.0139999
-0.13675405 -0.21862042 2.0120001
-0.12186925 -0.21862042 2.0120001
0.28989145 -0.24298345 2.029
0.31240728 -0.24298345 2.029
0.51692617 -0.24298345 2.029
0.74998474 -0.24250443 2.0250001
0.75597757 -0.24262418 2.026
-0.06279476 -0.23149711 2.0270002
0.18847723 -0.23161133 2.0280001
0.19575953 -0.23229252 2.0257502
0.20505202 -0.2312687 2.0250001
0.21351635 -0.23335668 2.0236001
0.2298492 -0.23923081 2.029
0.23472241 -0.23846442 2.0225
0.24393271 -0.23832686 2.0213335
0.28501061 -0.23828755 2.0210001
0.31543151 -0.23868059 2.0243332
0.32450002 -0.23846442 2.0225
0.33465049 -0.2390343 2.0273333
0.34855396 -0.23454972 2.0210001
0.35743898 -0.23923081 2.029
0.36446461 -0.2389164 2.0263336
0.37539437 -0.23871988 2.0246668
0.38219455 -0.23828755 2.0210001
0.3962568 -0.23138291 2.026
0.49430758 -0.23404907 2.02475
0.51506859 -0.23616843 2.0241666
0.52401996 -0.23376985 2.0250001
0.53484368 -0.23344955 2.0244002
0.54399502 -0.23407948 2.0250001
0.55523086 -0.2387592 2.0250003
0.56216681 -0.23291291 2.0230002
0.82073885 -0.23864128 2.0240002
-0.30295104 -0.22228959 2.0285001
-0.29868305 -0.22003298 2.0250001
-0.18445316 -0.22377822 2.0250001
-0.17523234 -0.22396238 2.0266669
-0.1654833 -0.2234467 2.0220001
-0.14131308 -0.22554311 2.0240002
-0.13404606 -0.22778563 2.0273335
-0.12465414 -0.22774817 2.027
-0.11861783 -0.22696167 2.02
-0.043952804 -0.22726129 2.0226667
-0.025268516 -0.2236677 2.0240002
-0.014018456 -0.22340985 2.0216668
0.057002123 -0.22707403 2.0210001
0.060739968 -0.22707403 2.0210001
0.073916979 -0.22735491 2.0235
0.098506801 -0.22797288 2.029
0.10411057 -0.2279167 2.0285001
0.12852792 -0.22797288 2.029
0.13569428 -0.22741109 2.0240002
0.14498663 -0.22729874 2.0230002
0.15443976 -0.22744857 2.0243335
0.16545294 -0.22714894 2.0216668
0.17474422 -0.22707403 2.0210001
0.18026175 -0.22696167 2.02
0.75819653 -0.25147635 2.0370002
0.21751557 -0.24011511 2.0365
0.23605752 -0.24358222 2.0339999
0.28456858 -0.24503887 2.0356667
0.32221952 -0.24503763 2.0356667
0.38898778 -0.24017406 2.0370002
0.50553 -0.24005614 2.036
0.51331317 -0.24394149 2.0370002
0.5258553 -0.24175838 2.0345001
0.55098754 -0.24017406 2.0370002
0.56605726 -0.24017406 2.0370002
0.74845058 -0.24322295 2.0310001
0.75670767 -0.24722251 2.033
0.76409966 -0.2463346 2.036
0.77301073 -0.24511869 2.0363333
0.78003454 -0.24370198 2.0350001
-0.14208108 -0.23241077 2.0350001
-0.13656956 -0.23263918 2.0370002
-0.062980637 -0.23594239 2.033
-0.051649664 -0.23195393 2.0310001
-0.04803481 -0.23263918 2.0370002
0.064860657 -0.23218235 2.033
0.14405727 -0.23256303 2.0363336
0.15917417 -0.23263918 2.0370002
0.16474348 -0.23252498 2.0360003
0.17319329 -0.23343921 2.0357502
0.18524508 -0.23351429 2.0336668
0.19270195 -0.23594239 2.033
0.20391518 -0.23586501 2.0323334
0.22477186 -0.23982033 2.0339999
0.34489912 -0.23964348 2.0325
0.35232925 -0.23958454 2.0320001
0.39574403 -0.23594239 2.033
0.40405753 -0.23640661 2.0370002
0.50804484 -0.23946662 2.0310001
-0.30708072 -0.22256309 2.0310001
-0.29639059 -0.22299957 2.0350001
-0.1629416 -0.22887175 2.0370002
-0.15536906 -0.22881557 2.0365
-0.14761919 -0.22847849 2.0335002
-0.023546476 -0.22887175 2.0370002
-0.016007211 -0.22881557 2.0365
0.053580545 -0.22842231 2.033
0.079822205 -0.2281976 2.0310001
0.5198729 -0.25283435 2.0480001
0.76572353 -0.25209361 2.0420001
0.77460372 -0.25252572 2.0455
0.14495336 -0.24158892 2.049
0.17148076 -0.24158892 2.049
0.19592008 -0.24135311 2.0469999
0.20515203 -0.241078 2.0446668
0.21459335 -0.24295315 2.0445001
0.24324608 -0.24892497 2.0470002
0.32770616 -0.24649033 2.0425
0.3347674 -0.24682382 2.0452502
0.34481803 -0.24657141 2.0431666
0.35366583 -0.2459607 2.0433333
0.36415729 -0.24497937 2.0456667
0.37569001 -0.24509913 2.0466669
0.38408938 -0.24442051 2.0410001
0.39429832 -0.24237929 2.0450001
0.40623948 -0.24147102 2.0480001
0.41381502 -0.24147101 2.0480001
0.42159635 -0.24158892 2.049
0.48684007 -0.24105835 2.0445001
0.49576941 -0.24080288 2.0423334
0.50275022 -0.24052776 2.0400002
0.51507592 -0.24730064 2.0439999
0.52414453 -0.24837776 2.0425
0.53345346 -0.24202432 2.0420001
0.54451984 -0.24064569 2.0410001
0.55961919 -0.24442051 2.0410001
0.56394607 -0.24466002 2.043
0.74555826 -0.24473985 2.0436666
0.77630317 -0.24868177 2.0450001
-0.19601765 -0.23010768 2.0480001
-0.14249998 -0.23687084 2.0410001
-0.13526012 -0.2361517 2.0456667
-0.12765034 -0.23355283 2.0450001
-0.051903971 -0.23687084 2.0410001
-0.045703202 -0.23607741 2.0450001
0.065211602 -0.23721901 2.0440001
0.082385153 -0.23389545 2.0480001
0.13521296 -0.23355284 2.0450001
0.14462322 -0.2372577 2.0443335
0.155764 -0.23443167 2.0416667
0.16518807 -0.23692888 2.0415001
0.17656088 -0.23698691 2.0420001
0.18397762 -0.23681282 2.0405002
-0.19529888 -0.2273785 2.0405002
-0.18396245 -0.22924626 2.0403335
-0.17458609 -0.22932117 2.0410001
-0.16884106 -0.22920881 2.0400002
-0.034908198 -0.22926499 2.0405002
0.21399897 -0.25014102 2.0570002
0.22182329 -0.25038424 2.059
0.36605731 -0.25005993 2.0563333
0.37568617 -0.25014102 2.0570002
0.39680424 -0.25026262 2.0580001
0.40842143 -0.25038424 2.059
0.51759708 -0.25357509 2.0540001
0.52671075 -0.25338989 2.0525002
0.7458927 -0.25369853 2.0550001
0.75177526 -0.25376028 2.0555
0.77705407 -0.25774989 2.0570002
0.7846635 -0.25521359 2.0570002
0.14636569 -0.24425799 2.0555
0.16611813 -0.24206054 2.053
0.17578363 -0.24229635 2.0550001
0.18555501 -0.24265006 2.0580001
0.19488761 -0.24431832 2.0560002
0.2044879 -0.24633659 2.0570002
0.21368624 -0.24724424 2.0540001
0.22482781 -0.2456979 2.051667
0.33476129 -0.24941139 2.0510001
0.35786989 -0.24965461 2.0530002
0.38394913 -0.24933033 2.0503335
0.39393982 -0.24775794 2.053
0.40387499 -0.24517916 2.0552502
0.41556683 -0.24629666 2.0566666
0.42657602 -0.24417093 2.05475
0.43634659 -0.24241427 2.0560002
0.49220017 -0.2465761 2.059
0.50859189 -0.24621683 2.0560002
0.51404834 -0.24989781 2.0550001
0.53633022 -0.24585757 2.0530002
0.54498595 -0.24633659 2.0569999
0.55341685 -0.24585757 2.0530002
0.57392812 -0.2431684 2.051667
0.74492723 -0.24830972 2.0523336
0.75166082 -0.24928978 2.0500002
0.7856096 -0.24983701 2.0545001
-0.18157303 -0.23671317 2.0560002
-0.1738808 -0.23596366 2.0550001
-0.16975148 -0.23423807 2.0510001
-0.15883479 -0.23492332 2.0570002
-0.1322038 -0.23872775 2.0570002
-0.12839939 -0.23872775 2.0570002
-0.040808111 -0.23630975 2.0525002
-0.025641963 -0.23454262 2.0536668
-0.016135519 -0.23446649 2.053
0.085494399 -0.23748975 2.0545001
0.095950052 -0.23693261 2.0546002
0.1358397 -0.23843759 2.0545001
0.15469261 -0.23820549 2.0525002
0.78847748 -0.26282582 2.0670002
0.1461523 -0.25123546 2.066
0.15582311 -0.25141788 2.0675001
0.19783431 -0.25135708 2.0669999
0.20518377 -0.25099227 2.0640001
0.21070547 -0.25074905 2.062
0.22781035 -0.25068825 2.0615001
0.33525825 -0.25693852 2.0657501
0.34269637 -0.25678468 2.0645001
0.360136 -0.25505653 2.066
0.3874453 -0.25542688 2.069
0.39471662 -0.25518 2.0670002
0.40398052 -0.25308797 2.0655
0.41419238 -0.25340909 2.0650001
0.42420447 -0.25070849 2.0616667
0.4345431 -0.25117469 2.0655003
0.51383501 -0.25357771 2.0643334
0.52903026 -0.25925353 2.069
0.5361647 -0.25518 2.0670002
0.77284735 -0.2582511 2.0610001
0.78657019 -0.25837639 2.062
0.79191709 -0.25887761 2.066
-0.052590597 -0.24382913 2.0680001
-0.044914547 -0.24367191 2.0666666
0.087013535 -0.24382913 2.0680001
0.092795543 -0.24394704 2.069
0.13841328 -0.24532792 2.0645001
0.14192155 -0.24669586 2.0600002
0.15507244 -0.24486762 2.0660002
0.161284 -0.24335751 2.0640001
0.1800213 -0.24288589 2.0600002
0.1938246 -0.24729463 2.0650001
0.43380722 -0.24693537 2.0620003
0.44282472 -0.24771377 2.0685
0.46427962 -0.24598473 2.0646667
0.4962492 -0.24669586 2.0600002
0.50208557 -0.24675575 2.0605001
0.57625866 -0.24669586 2.0600002
-0.1763401 -0.23925 2.0615001
-0.15960696 -0.23988831 2.0670002
-0.035309773 -0.23954013 2.0640001
-0.025748311 -0.2393467 2.0623333
-0.014300044 -0.2380368 2.062
0.014293415 -0.23919198 2.0610001
0.062002253 -0.23942408 2.0630002
0.10583037 -0.23930803 2.0620003
0.13049163 -0.23907591 2.0600002
0.39700815 -0.26050657 2.079
0.40085325 -0.26050657 2.079
0.78309822 -0.26358876 2.0730002
0.79396242 -0.26635852 2.0746667
0.13719469 -0.25232989 2.075
0.14508328 -0.25653797 2.0780001
0.15041262 -0.25579727 2.072
0.1622217 -0.25245151 2.0760002
0.18726718 -0.25257313 2.0770001
0.19247355 -0.25184348 2.0710001
0.20090728 -0.25666144 2.079
0.21778953 -0.25616765 2.0750003
0.22397797 -0.25666144 2.079
0.34218612 -0.25975475 2.0730002
0.36525142 -0.25723988 2.0733335
0.38253325 -0.25598246 2.0735002
0.42431164 -0.25573552 2.0715003
0.43280733 -0.25622934 2.0755
0.44584918 -0.25216776 2.0736668
0.45528966 -0.2520867 2.0730002
0.46487346 -0.2520867 2.0730002
0.47445977 -0.2520867 2.0730002
0.48090574 -0.25245151 2.0760002
0.51211518 -0.25269473 2.0780001
0.52545744 -0.25937882 2.0700002
0.54181629 -0.25604418 2.0740001
-0.21821029 -0.24128097 2.079
-0.041295223 -0.2487317 2.0770001
-0.03612648 -0.24585634 2.0743334
-0.022066874 -0.24465448 2.075
-0.014403924 -0.24349622 2.076
0.014411322 -0.2450082 2.0780001
0.064217955 -0.24441867 2.073
0.075831443 -0.24477237 2.0760002
0.085445918 -0.24737322 2.0763335
0.094980732 -0.2465761 2.075
0.10469786 -0.2449296 2.0773332
0.13389288 -0.24573781 2.0733335
0.15792437 -0.24789341 2.0700002
0.16190913 -0.24813293 2.072
0.18501742 -0.24829261 2.0733335
0.44888806 -0.24789341 2.0700002
0.45485041 -0.24801317 2.0710001
0.36689317 -0.26482037 2.0826666
0.38714153 -0.26163429 2.0880001
0.39313713 -0.26262915 2.0856667
0.40720862 -0.2608825 2.0820003
0.41500819 -0.26094514 2.0825
0.42501578 -0.26117483 2.0843334
0.43327504 -0.26150897 2.0870001
0.77842265 -0.26460597 2.0810001
0.78367794 -0.26797634 2.0847502
0.80401909 -0.26736152 2.0875001
-0.045325983 -0.25167587 2.0855002
-0.035608701 -0.25312036 2.0815001
0.086804077 -0.25366712 2.086
0.093423449 -0.25330275 2.0830002
0.12451011 -0.25191861 2.0875001
0.13194858 -0.25330275 2.0830002
0.18185647 -0.25305954 2.0810001
0.19367743 -0.25727871 2.0839999
0.20707259 -0.25715527 2.0830002
0.2125448 -0.25678489 2.0800002
0.22826141 -0.25715527 2.0830002
0.23177962 -0.25678489 2.0800002
0.37604082 -0.25678489 2.0800002
0.43951571 -0.25678489 2.0800002
0.44689223 -0.25771081 2.0875001
0.45566997 -0.25721699 2.0835001
0.46459913 -0.25789598 2.089
0.47743511 -0.25752562 2.0860002
0.48573315 -0.25590247 2.0885
0.49624643 -0.25342435 2.0840001
0.50539899 -0.25318113 2.082
0.51277101 -0.25783426 2.0885
0.751481 -0.25690836 2.0810001
-0.22248264 -0.2417452 2.0830002
-0.21259636 -0.24145506 2.0805001
-0.13583508 -0.24565667 2.0834999
-0.1299599 -0.24547981 2.082
-0.04528876 -0.24956998 2.0840001
-0.033677123 -0.24921072 2.0810001
-0.027904827 -0.24536189 2.0810001
-0.010614756 -0.24606934 2.0870001
-0.0048251203 -0.24601039 2.0865002
0.0048196488 -0.24567632 2.0836668
0.070207104 -0.245244 2.0800002
0.097369358 -0.24968974 2.085
0.12421835 -0.24746686 2.0825
0.13175854 -0.24909097 2.0800002
0.53256512 -0.27064785 2.098
0.78465986 -0.27380842 2.0925002
0.074659318 -0.26276201 2.0970001
0.2161682 -0.26269937 2.0964999
0.22172111 -0.26432624 2.0940001
0.37447134 -0.26397189 2.0963335
0.38474581 -0.26392829 2.096
0.3958106 -0.26613182 2.0930002
0.40355262 -0.26613182 2.0930002
0.53053433 -0.26575035 2.0900002
0.54368711 -0.26263672 2.0960002
0.74633473 -0.26301262 2.0990002
-0.053353518 -0.25124657 2.098
-0.047444358 -0.2546404 2.0940001
-0.03005765 -0.25306785 2.0970001
0.014553964 -0.25130644 2.0985003
0.020371342 -0.25124657 2.098
0.057116676 -0.25267541 2.09375
0.06423676 -0.25209963 2.0943334
0.084152356 -0.25632992 2.092
0.096470036 -0.25714061 2.0933335
0.10550085 -0.25262597 2.0933335
0.11512099 -0.25249395 2.0922501
0.12079562 -0.25415397 2.0900002
0.18470678 -0.25820464 2.0915003
0.46935976 -0.2583898 2.0930002
0.47300467 -0.25826636 2.092
0.50427788 -0.25843096 2.0933332
0.55271614 -0.25845152 2.0935001
-0.30856541 -0.24278972 2.092
-0.22559026 -0.24496195 2.0940001
0.37719873 -0.27276134 2.1043336
0.38459048 -0.27359372 2.1057501
0.39311656 -0.2724615 2.1045001
0.40382424 -0.27343619 2.1045001
0.41014886 -0.27180886 2.1070001
1.0463361 -0.27206686 2.1090002
-0.04773704 -0.26011816 2.1070001
0.055530842 -0.26011816 2.1070001
0.072961941 -0.2655839 2.1040001
0.19164912 -0.26558852 2.1040001
0.20721453 -0.26363915 2.1040001
0.21402441 -0.26655906 2.1040001
0.2331575 -0.26493934 2.1040001
0.37843406 -0.2675305 2.1040001
0.38399482 -0.26733977 2.1025
0.40878624 -0.26702189 2.1000001
0.41530272 -0.26746693 2.1035001
0.42288244 -0.26733977 2.1025
0.44472361 -0.26372269 2.1046667
0.54562604 -0.26552495 2.1035001
0.55496073 -0.26338854 2.1020002
-0.063242227 -0.25394443 2.10425
-0.056126997 -0.25468281 2.105
0.014606444 -0.25609964 2.1060002
0.024322456 -0.25394347 2.1042502
0.054105651 -0.25561568 2.102
0.065818697 -0.25841078 2.1036665
0.074923575 -0.25591677 2.1045001
0.10411981 -0.25980952 2.1045003
0.16798104 -0.25925398 2.1000001
0.17599447 -0.25962436 2.1030002
-0.31887406 -0.24866326 2.1090002
0.20859334 -0.2732279 2.118
0.21401215 -0.27264738 2.1135001
0.23601405 -0.2732279 2.118
0.3976379 -0.27649087 2.1129999
0.41737717 -0.27271187 2.1140001
0.4248938 -0.2725184 2.1125002
0.547436 -0.27322787 2.118
0.75202382 -0.27284089 2.115
-0.0557581 -0.26116753 2.1155
0.055769891 -0.26318693 2.1160002
0.066162862 -0.26628149 2.1146667
0.071253464 -0.26842058 2.1110001
0.17692061 -0.26098233 2.1140001
0.20800242 -0.26854774 2.112
0.22785637 -0.26697701 2.1150002
0.23143932 -0.26854774 2.112
0.44733402 -0.26918349 2.1170001
0.50566471 -0.26505926 2.1153336
0.5150001 -0.26482952 2.1135001
0.52049434 -0.26464158 2.112
0.54367185 -0.26842058 2.1110001
0.55252725 -0.26892918 2.115
0.74881953 -0.26918349 2.1170001
0.02829276 -0.25658607 2.1100001
0.075122155 -0.25658607 2.1100001
0.061942838 -0.27039146 2.1265001
0.22914916 -0.27438891 2.1270001
0.234026 -0.2765778 2.1236668
0.41581434 -0.27819195 2.1259999
0.44523266 -0.27290624 2.1256669
0.49712077 -0.27070934 2.1290002
0.51287115 -0.27070934 2.1290002
0.53840351 -0.2775377 2.1210001
0.54474688 -0.27679774 2.1253335
0.55710757 -0.27413091 2.125
0.75129557 -0.27400193 2.1240001
-0.089496024 -0.26258725 2.1270001
-0.073656425 -0.2622169 2.1240001
-0.065800361 -0.2622169 2.1240001
-0.058079459 -0.26677173 2.1290002
0.014744231 -0.26246381 2.1259999
0.024549522 -0.26217571 2.1236668
0.048054229 -0.26184651 2.1210001
0.055978887 -0.26614523 2.1240001
0.17817596 -0.26677173 2.1290002
0.444047 -0.26956496 2.1200001
0.55854368 -0.26994643 2.1230001
-0.32068843 -0.25400093 2.1210001
-0.31706434 -0.25424045 2.1230001
-0.062279213 -0.27185372 2.138
-0.058352258 -0.27198088 2.1390002
0.054317109 -0.27159941 2.1360002
0.17859441 -0.27134511 2.1340001
0.42616808 -0.27982759 2.1385002
0.43098998 -0.27910793 2.1330001
0.44303253 -0.27529195 2.1340001
0.49875528 -0.27554995 2.1360002
0.50553226 -0.27300382 2.1346002
0.51542509 -0.27449918 2.1355002
0.55250645 -0.27871537 2.1300001
0.56472945 -0.27644128 2.1352501
0.72424287 -0.27628005 2.1340001
0.73416984 -0.27682203 2.1336002
0.74559957 -0.27615196 2.1330001
0.75624758 -0.27976218 2.138
-0.083790779 -0.26320451 2.132
-0.078059629 -0.26382178 2.1370001
-0.062104438 -0.26714766 2.1320002
0.0069041918 -0.26345143 2.1340001
0.034536682 -0.26345143 2.1340003
0.044395607 -0.26472712 2.1336668
0.052222084 -0.26702234 2.131
0.18288341 -0.26789948 2.138
-0.3246302 -0.25752839 2.1340001
-0.31825912 -0.25913978 2.131
0.40903872 -0.28622895 2.1420002
0.41527265 -0.28643033 2.1435001
0.42229918 -0.28517613 2.1490002
0.44740361 -0.2807436 2.1455002
0.72529155 -0.2800239 2.1400001
0.74176091 -0.28341448 2.1456668
0.75475645 -0.28067815 2.1450002
-0.070548803 -0.2732524 2.1490002
0.04855267 -0.27248949 2.1430001
0.18339665 -0.27261662 2.1440001
0.52615243 -0.27645296 2.1430001
0.53184932 -0.27632397 2.1420002
-0.32797825 -0.26059902 2.1430001
-0.074388362 -0.26877663 2.1450002
-0.034741744 -0.2669819 2.1465001
0.016884105 -0.26915252 2.148
0.024752505 -0.26831716 2.1413336
0.044651609 -0.26890191 2.1460001
0.4258678 -0.2882306 2.1570001
0.43603957 -0.28437579 2.158
0.44278935 -0.28159413 2.1520002
0.45430711 -0.2813324 2.1500001
0.4996694 -0.28224838 2.1570001
0.50448227 -0.2815941 2.152
0.51467133 -0.28172496 2.1530001
0.52560031 -0.28224838 2.1570001
0.53320664 -0.2820521 2.1554999
0.72470433 -0.2813324 2.1500001
0.74397892 -0.28982347 2.1540003
0.75323939 -0.28159413 2.1520002
-0.076688685 -0.27388817 2.154
-0.034907043 -0.27227494 2.1570001
0.016970571 -0.27452394 2.1590002
0.024868101 -0.27354908 2.1513336
0.034905195 -0.27227679 2.1570001
0.044797257 -0.273761 2.1530001
0.45870987 -0.277614 2.1520002
0.46424818 -0.277356 2.1500001
0.47426215 -0.27739897 2.1503334
0.48634467 -0.27748498 2.151
0.49276984 -0.27774298 2.1530001
-0.034842312 -0.26977903 2.1530001
0.0089594517 -0.26977903 2.1530001
0.012929408 -0.26952842 2.151
0.032820806 -0.26952842 2.151
0.22112834 -0.29116899 2.164
0.4252468 -0.29317015 2.164
0.4355557 -0.29137081 2.1655002
0.44407567 -0.29170722 2.1680002
0.45029879 -0.29184175 2.1690001
0.43684965 -0.28690127 2.1620002
0.4449822 -0.28698972 2.1626666
0.46391112 -0.28355691 2.1670001
0.47407535 -0.28364411 2.1676667
0.48505986 -0.28303349 2.1630001
0.49585825 -0.28349146 2.1665001
0.50646079 -0.28783017 2.1690001
0.51400954 -0.28756478 2.1670001
0.54231477 -0.28769746 2.1680002
0.7632013 -0.28783017 2.1690001
-0.03300298 -0.27503252 2.1630001
-0.025019836 -0.27522326 2.1645002
-0.015015031 -0.2739515 2.1650002
0.013001539 -0.27503255 2.1630001
0.027052209 -0.27954903 2.1670003
0.037004378 -0.27503255 2.1630001
0.040966939 -0.27477825 2.161
-1.1134716 -0.26499686 2.1660001
0.42416438 -0.30124739 2.1790001
0.42662239 -0.29612613 2.171
0.4340412 -0.29708093 2.178
0.44008258 -0.29708093 2.1780002
0.51614428 -0.29278362 2.1760001
0.54465008 -0.292963 2.1773336
0.76749974 -0.29271632 2.1755002
-0.079593793 -0.28109705 2.1790001
-0.031233007 -0.28109705 2.1790001
-0.025170106 -0.28090358 2.1775002
-0.01912524 -0.28083906 2.177
0.021109294 -0.28045204 2.174
0.037209675 -0.28058106 2.1750002
0.041270256 -0.28083906 2.177
0.49267551 -0.28915718 2.1790001
0.50360745 -0.28849369 2.174
0.51070768 -0.28796288 2.1700001
0.53880161 -0.28796288 2.1700001
0.54682845 -0.28796288 2.1700001
-0.11972938 -0.27668554 2.1760001
-1.1344287 -0.26875997 2.177
-1.1248238 -0.26235837 2.174
-1.1163101 -0.26070723 2.177
-1.1050568 -0.26444697 2.1746669
-1.0986959 -0.26888341 2.1780002
0.42706281 -0.30388546 2.1835001
0.45766166 -0.29399458 2.1850002
0.46404314 -0.2941964 2.1865001
0.47830486 -0.2902188 2.187
0.49448431 -0.29426366 2.187
0.5057646 -0.29377031 2.1833334
0.51306117 -0.29332182 2.1800001
0.76444 -0.29386002 2.184
0.77357978 -0.29830852 2.187
-0.0030350331 -0.28225809 2.1880002
0.0050494499 -0.28165609 2.1833334
0.015135633 -0.28154856 2.1824999
0.033324331 -0.28174207 2.184
0.045421463 -0.28161308 2.1830001
0.45766166 -0.28995341 2.1850002
0.46538687 -0.28973225 2.1833336
0.47339258 -0.28968799 2.1830001
0.49738941 -0.28955531 2.1820002
0.50096542 -0.28928989 2.1800001
0.57055295 -0.2898207 2.184
-1.1452751 -0.26662323 2.1842501
-1.1370342 -0.26534161 2.1820002
-1.1014705 -0.26350343 2.1835003
-1.0991911 -0.2699945 2.187
0.4350034 -0.30453429 2.1930001
0.75831139 -0.30352852 2.1955001
0.76051718 -0.30765915 2.1960001
0.47520092 -0.29484674 2.1913335
0.48884103 -0.29980895 2.1980002
0.49989688 -0.29507098 2.1930001
0.57212043 -0.29466733 2.1900001
0.76794016 -0.29926333 2.194
0.77059048 -0.29871774 2.1900001
0.0030477487 -0.28754789 2.1975002
0.017269265 -0.28748247 2.197
0.025395978 -0.28748247 2.197
0.047734037 -0.28741705 2.1965001
-1.0942593 -0.27077639 2.1933336
-1.0819621 -0.27310631 2.1903336
-1.0748618 -0.27048832 2.1910002
-1.0619644 -0.27081752 2.1936667
-1.0547322 -0.27713397 2.1955001
-1.0925241 -0.26728728 2.1980002
0.27883881 -0.30539489 2.2090001
0.28292438 -0.30539489 2.2090001
0.43639007 -0.30821955 2.2
0.44319785 -0.30667174 2.2035
0.48395163 -0.30055916 2.2035
0.50840116 -0.30055916 2.2035003
0.51667237 -0.30062735 2.204
0.54415315 -0.30117294 2.2080002
0.758178 -0.30835965 2.2010002
0.0050986153 -0.29269591 2.2056665
0.017332148 -0.29260746 2.2050002
0.025523132 -0.29300556 2.2080002
0.04789656 -0.29247475 2.204
0.056163143 -0.2930719 2.2085001
0.062304646 -0.29313824 2.2090001
-0.0030613886 -0.288791 2.207
0.009155036 -0.28787503 2.2
0.013229952 -0.28800589 2.2010002
0.02951297 -0.28800589 2.2010002
0.041763149 -0.28826758 2.2030001
0.055998303 -0.28813672 2.2020001
-1.0602609 -0.27246359 2.207
-1.0501903 -0.27604422 2.2030001
0.27997488 -0.31074134 2.2180002
0.28817928 -0.31074134 2.2180002
0.75856131 -0.31018096 2.214
0.28713986 -0.30553314 2.21
0.44675052 -0.30976066 2.2110002
0.45165539 -0.30622441 2.2150002
0.50582361 -0.30267337 2.2190001
0.54538536 -0.30185497 2.2130001
0.75401098 -0.30317318 2.2126667
-0.015383235 -0.29433256 2.2180002
-0.0030738728 -0.29406717 2.2160001
0.0010260114 -0.29856932 2.2190001
0.013290061 -0.29340366 2.2110002
0.029660467 -0.29353637 2.2120001
0.035894215 -0.29433256 2.2180002
0.041952722 -0.29366904 2.2130001
0.066510417 -0.29366904 2.2130001
-1.0460858 -0.28603971 2.2173336
-1.1782781 -0.27332777 2.214
-1.0572395 -0.27326602 2.2135
-1.0481057 -0.27710932 2.2115002
0.28446132 -0.31116164 2.2210002
0.43390465 -0.31678182 2.2220001
0.4553442 -0.31144184 2.223
0.54677439 -0.31200224 2.2270002
0.56968552 -0.31214234 2.2280002
0.57406378 -0.31228244 2.2290001
0.75751686 -0.31228244 2.2290001
0.45678082 -0.30691564 2.22
0.49073076 -0.30760691 2.2250001
0.5030762 -0.30349177 2.2250001
0.54554677 -0.30719215 2.2220001
0.55295449 -0.30788341 2.227
0.56866276 -0.30746865 2.2240002
0.57329112 -0.30774516 2.2260001
-0.011296297 -0.29473066 2.2210002
-0.007188553 -0.29473066 2.2210002
0.0051323688 -0.29870385 2.22
0.02780218 -0.29964572 2.227
0.058667138 -0.29951116 2.2260001
0.062840536 -0.29978028 2.2280002
-1.0430957 -0.28522885 2.2270002
-1.2030612 -0.27550989 2.2250001
-1.1861112 -0.27419195 2.2210002
-1.0478615 -0.27867562 2.2240002
0.45491728 -0.3166889 2.2310002
0.46317038 -0.31256264 2.2310002
0.49511617 -0.31319308 2.2355001
0.54351091 -0.31368345 2.2390001
0.55394769 -0.31256264 2.2310002
0.56734174 -0.31312305 2.2350001
-0.081566289 -0.30045304 2.233
-0.0031057766 -0.30126035 2.2390001
0.021711307 -0.30085668 2.2360001
0.035480388 -0.30210185 2.2349999
0.044427127 -0.30065486 2.2345002
0.052619956 -0.30025119 2.2315001
0.067051396 -0.30018392 2.2310002
0.075377695 -0.30049789 2.2333336
0.46296278 -0.30829817 2.23
0.49595791 -0.30829817 2.23
0.5299018 -0.30885115 2.2340002
0.55957478 -0.30926591 2.237
0.56632638 -0.30843639 2.2310002
-1.2531385 -0.28042987 2.2380002
-1.0406432 -0.28211984 2.2350001
-1.0375273 -0.28612038 2.2372003
0.44353676 -0.323044 2.2465
0.025962388 -0.31051016 2.2460001
0.030129779 -0.31064841 2.2470002
0.47459492 -0.31051016 2.2460001
0.48716283 -0.31265721 2.2465
0.495038 -0.31653285 2.2445002
0.50322181 -0.31023365 2.2440002
0.53488374 -0.3129071 2.2433336
0.54380476 -0.31548971 2.2444999
0.55485487 -0.31839228 2.243
0.56429321 -0.31667686 2.2426
-0.75324631 -0.30233675 2.2470002
-0.011392934 -0.30139488 2.24
-0.0072532855 -0.30152944 2.2410002
0.02590459 -0.30567417 2.2410002
0.035235908 -0.30778065 2.24125
0.042635188 -0.30676538 2.2490001
0.055063535 -0.30649257 2.2470002
0.49033356 -0.30995715 2.2420001
0.56446809 -0.30968067 2.24
-1.0319134 -0.29512945 2.2475002
-1.0260762 -0.29519105 2.2453337
-1.0180829 -0.29577264 2.2445002
-0.74559581 -0.29844633 2.2490001
-1.2627218 -0.28325868 2.2440002
-1.2564982 -0.28533196 2.2440002
-1.0344092 -0.28460437 2.2448001
0.43817991 -0.33201757 2.2510002
0.44482148 -0.32814562 2.2530003
0.45096993 -0.32599211 2.2525001
