# .PCD v0.7 - Point Cloud Data file format
VERSION 0.7
FIELDS x y z
SIZE 4 4 4
TYPE F F F
COUNT 1 1 1
WIDTH 1003
HEIGHT 1
VIEWPOINT 0 0 0 1 0 0 0
POINTS 1003
DATA ascii
-0.79311335 0.12775888 1.1277502
-0.78436714 0.12681669 1.1280667
-0.77730882 0.13101874 1.12
-0.79697382 0.12434699 1.1347274
-0.80065233 0.12134307 1.146
-0.79783601 0.12123719 1.1450001
-0.6547758 0.11473092 1.154125
-0.6727953 0.11150372 1.165
-0.55270267 0.066230215 1.2243334
-0.55320692 0.058141414 1.245
-0.54983854 0.060201298 1.24
-0.55014277 0.047864195 1.2780001
-0.54378939 0.043384392 1.2853333
-0.53493172 0.043373138 1.2850002
-0.58622843 0.027798019 1.3360001
0.90239316 0.024732701 1.3715
0.89863586 0.017661823 1.3806667
0.88336456 0.010953446 1.3935001
0.88998699 0.0058509004 1.406
0.9015547 0.0019641714 1.416
0.94386846 0.0015242981 1.4140002
0.91119754 -0.0019794297 1.427
0.9260391 -0.0019801236 1.4275
0.90800482 0.0019724942 1.4220001
0.93667561 -0.0037500199 1.4323334
0.8754369 -0.0073342011 1.442
0.92337871 -0.013676531 1.4545001
-0.98018396 -0.14280331 1.6170001
-0.97352588 -0.13523127 1.615875
-0.96459252 -0.13598421 1.6159376
-0.95625794 -0.13297822 1.6170002
-0.97256124 -0.12568569 1.618
-0.96475202 -0.12457545 1.6172003
-0.95655322 -0.12639338 1.6175002
-0.98562866 -0.14187925 1.6235001
-0.9631629 -0.14638902 1.6236002
-0.95571995 -0.14095093 1.6232001
-0.94562 -0.1406773 1.627
-0.98382097 -0.13432673 1.6230001
-0.97930849 -0.13262203 1.6205001
-0.9525246 -0.13469818 1.6222857
-0.94666046 -0.13531014 1.6267778
-0.98363227 -0.12548758 1.6251669
-0.97691381 -0.12370789 1.6215
-0.95332837 -0.12434667 1.6233335
-0.94863009 -0.12713571 1.6270001
-0.96420979 -0.1502568 1.6330001
-0.99411905 -0.14136901 1.6350001
-0.96361935 -0.1471464 1.6320001
-0.95587903 -0.14432672 1.63425
-0.94494712 -0.14299138 1.6362501
-0.93895578 -0.14171487 1.6390001
-0.99351102 -0.13523962 1.6340002
-0.94223797 -0.13439113 1.6328752
-0.93739939 -0.13499555 1.6371669
-0.96790791 -0.14849885 1.6470001
-0.9593516 -0.14858902 1.6480001
-0.9456265 -0.14530553 1.6453334
-0.93725747 -0.1421472 1.6440001
-0.93329287 -0.13631254 1.6423751
-0.97202164 -0.15218906 1.654
-0.96538544 -0.14881441 1.6505001
-0.94391888 -0.14598261 1.6530001
-0.93361628 -0.13969892 1.651
-0.98024917 -0.15656221 1.6680001
-0.97503585 -0.15338524 1.6670001
-0.99174148 -0.16671182 1.677
-0.9857567 -0.16149367 1.6765002
-0.98760182 -0.15983862 1.6700001
-0.97477168 -0.15562244 1.6745001
-0.96227705 -0.15120375 1.677
-0.99200273 -0.1709273 1.6880001
-0.98738408 -0.17206983 1.6890001
-0.99099797 -0.16710946 1.6810001
-0.98563457 -0.16596225 1.6851252
-0.97815782 -0.16133809 1.6856667
-0.97272706 -0.15784501 1.6816667
-0.99308401 -0.1760793 1.6925001
-0.98309648 -0.17488694 1.6931002
-0.9813714 -0.16725989 1.6930002
-0.97629851 -0.16363183 1.6932501
-0.96989149 -0.16203998 1.6930001
-0.98134309 -0.18493636 1.702
-0.9823041 -0.17566341 1.7036667
-0.98076653 -0.16909768 1.7010001
-1.0561645 -0.44822574 2.2285001
-1.0479203 -0.44822574 2.2285001
-1.0822217 -0.45583504 2.2355001
-1.0750563 -0.45335901 2.2335002
-1.0300664 -0.4526518 2.23
-1.0239229 -0.45358333 2.2346003
-1.0181284 -0.45682967 2.237
-1.0705359 -0.44993535 2.237
-1.0649683 -0.44933194 2.2340002
-1.0539846 -0.44441769 2.2370002
-1.0451266 -0.44658092 2.23575
-1.0357735 -0.44791728 2.2352002
-1.0282423 -0.44953308 2.2350001
-1.0227133 -0.45073989 2.2410002
-1.0142714 -0.45475408 2.2432857
-1.0092771 -0.45422572 2.2480001
-1.0711656 -0.44779086 2.2470002
-1.0635699 -0.44416043 2.2426665
-1.0554 -0.44225299 2.24
-1.0450428 -0.44225299 2.24
-1.0339954 -0.44343677 2.2407501
-1.0245454 -0.44454342 2.2432001
-1.0169111 -0.44665223 2.2465
-1.0056031 -0.46372488 2.2537501
-1.0874912 -0.45355576 2.2550001
-1.0064961 -0.45579195 2.2557502
-1.0129186 -0.44386667 2.2524002
-1.086203 -0.45058084 2.2610002
-1.0029016 -0.45383582 2.2633333
-0.99810517 -0.474125 2.2940001
-0.99818134 -0.46463031 2.2932
-1.0003291 -0.4889788 2.3040001
-0.99647778 -0.47571278 2.3016667
1.0636718 -0.44399673 2.3027501
1.0718017 -0.44471997 2.3065
1.1485875 -0.44471997 2.3065
1.1516037 -0.44423842 2.3040001
1.059463 -0.43637457 2.3075001
1.0636715 -0.43392292 2.3058336
1.0742458 -0.43417659 2.3071668
1.1243925 -0.43803382 2.3050001
1.0573961 -0.44031423 2.3170002
1.0786334 -0.44577998 2.3120003
1.084783 -0.44440764 2.3160002
1.0959141 -0.44475418 2.3178
1.1028683 -0.44479266 2.3180001
1.1250103 -0.44464704 2.3172503
1.1336761 -0.44640592 2.3152499
1.1445011 -0.44645342 2.3155
1.0537316 -0.43326244 2.3136668
1.0691557 -0.43043929 2.3100002
1.0846568 -0.43493238 2.3111668
1.0945402 -0.43588641 2.3162501
1.1209089 -0.43917403 2.3110001
1.4385424 -0.44651839 2.3270001
1.1150274 -0.43463537 2.3210001
1.1038789 -0.46564943 2.3475003
1.3863283 -0.45590946 2.3468573
1.1018791 -0.46664029 2.3525
1.3823938 -0.46515536 2.3560002
1.3865709 -0.45131552 2.3520002
-1.7111063 -0.5341534 2.3656666
1.3857782 -0.46484581 2.3655
1.4926524 -0.46693227 2.365
1.3867944 -0.45570743 2.3635001
-1.7149506 -0.5255633 2.3730001
1.3689138 -0.46070269 2.378
1.3830079 -0.46831432 2.3720002
1.3906119 -0.46280485 2.3775001
1.3710018 -0.45992774 2.3740001
-1.7168688 -0.54480189 2.3842003
-1.7179041 -0.53512192 2.38625
1.3844329 -0.47028866 2.3820002
1.3788687 -0.46109018 2.3800001
1.3877976 -0.46406972 2.3840003
-1.7171354 -0.54873002 2.3975
-1.7204297 -0.53576243 2.3990002
1.366981 -0.48070875 2.3900001
1.3742703 -0.48171443 2.3950002
1.3810025 -0.48695591 2.3990002
-1.7167678 -0.55594528 2.4047503
-1.7211468 -0.54264396 2.4000001
-1.7182366 -0.54383075 2.4052503
1.3838809 -0.48352462 2.404
1.3928648 -0.48878276 2.408
1.3765367 -0.47543842 2.4036
1.3844565 -0.47705644 2.4050002
1.3925751 -0.47532326 2.4075003
-1.7195718 -0.56425142 2.4165001
-1.7206391 -0.55789405 2.4180002
-1.7199275 -0.55319309 2.4170001
-1.7167777 -0.54521602 2.4146669
1.3751031 -0.48067269 2.4120002
1.3952041 -0.48391178 2.4133334
1.4008843 -0.48186839 2.4180002
-1.7193608 -0.56565249 2.4225001
-1.7204255 -0.55927837 2.424
-1.7190061 -0.55433744 2.4220002
1.379166 -0.5016169 2.427
1.3589675 -0.49182752 2.4230001
1.3668252 -0.49304539 2.4290001
1.3797343 -0.48386124 2.4280002
-1.7244371 -0.57331055 2.4360001
-1.725145 -0.56453145 2.437
-1.7212824 -0.55550957 2.4336669
-1.7185196 -0.55258226 2.434
1.3763765 -0.50223696 2.4300001
1.3769633 -0.49507523 2.4390001
1.3848486 -0.4969238 2.4370003
1.3662653 -0.48915637 2.4320002
1.3808708 -0.48875409 2.4300001
-1.724874 -0.57495797 2.4430001
-1.7238457 -0.56406367 2.4447501
1.3792214 -0.50040549 2.4430001
1.3831733 -0.50020069 2.4420002
1.3820406 -0.49527821 2.4400001
-1.728806 -0.58005244 2.4550002
-1.7270554 -0.57240617 2.4546669
-1.7241544 -0.56537819 2.457
-1.7319914 -0.5826515 2.4660001
-1.7266127 -0.57579136 2.4626667
-1.732681 -0.58556515 2.4735003
-1.2319477 -0.58331245 2.4785001
-1.7281095 -0.57298714 2.4735003
-1.73824 -0.59475279 2.4880002
-1.7333111 -0.58568746 2.4853334
-0.75512367 -0.57582372 2.4857502
-0.7456274 -0.57559198 2.4847503
-0.73940372 -0.57611299 2.487
-1.2344329 -0.56611717 2.4835
-0.75350571 -0.56714249 2.4880002
-0.74645287 -0.56702852 2.4875002
-1.7360771 -0.59558898 2.4915001
-1.2510473 -0.5856691 2.4983335
-1.2437658 -0.58672452 2.493
-1.251381 -0.5742718 2.4990001
-1.2442646 -0.57542795 2.4940002
-0.76454812 -0.57542676 2.4940002
-0.73502529 -0.57450444 2.494
-0.72635895 -0.57392716 2.4975002
-0.76285398 -0.56435066 2.4960003
-0.75748444 -0.56552094 2.4909999
-0.74341708 -0.56372386 2.4912
-0.73522741 -0.56440556 2.4962502
-0.72643191 -0.56474471 2.4977503
-1.7364441 -0.60352898 2.5053334
-1.7371974 -0.59528321 2.5047503
-1.2865512 -0.59745163 2.5090001
-1.2765077 -0.5947752 2.5075002
-1.2654632 -0.59394497 2.5040002
-1.2570082 -0.59554547 2.5010002
-1.7373762 -0.58606106 2.5
-1.2744421 -0.58561713 2.5080001
-1.266474 -0.58514965 2.506
-1.2580134 -0.58444965 2.503
-0.7934826 -0.58497524 2.50525
-0.78343213 -0.58439147 2.5027499
-0.775635 -0.58143729 2.5
-0.72361499 -0.58468407 2.5039999
-0.79326314 -0.57688242 2.5070002
-0.78468382 -0.57605118 2.5067501
-0.77401984 -0.57501805 2.5022502
-0.72087014 -0.57507658 2.5025001
-0.7923485 -0.56960922 2.5090001
-0.78523183 -0.56949568 2.5085001
-0.72072607 -0.56570542 2.5020001
-1.73488 -0.60622036 2.5165
-1.2966073 -0.60245204 2.5105002
-1.7365155 -0.59667468 2.5155001
-1.3143202 -0.59720629 2.5177503
-1.306687 -0.59691 2.5165
-1.2968655 -0.59560537 2.5110002
-1.287064 -0.5930475 2.5100002
-0.83404893 -0.59501445 2.5144
-1.301774 -0.58748329 2.5160003
-1.2943336 -0.58380765 2.5142
-1.2841219 -0.58668864 2.5106003
-0.84209549 -0.5858562 2.5190001
-0.8338899 -0.58709723 2.5176666
-0.82401294 -0.58585322 2.5149999
-0.81512147 -0.58488375 2.5148335
-0.80524838 -0.58506209 2.5116003
-0.72096419 -0.58352673 2.5190001
-0.80547297 -0.57473648 2.5152001
-0.79746538 -0.57227087 2.5105002
-0.72053486 -0.57386744 2.5175002
-1.7421188 -0.62043262 2.5270002
-1.7400506 -0.61502796 2.5240002
-1.7367575 -0.61318213 2.526
-1.7340074 -0.60287946 2.5220001
-1.3154148 -0.60660654 2.5213335
-0.87315744 -0.60197598 2.5280001
-1.3085043 -0.5907495 2.5200002
-0.88268304 -0.5950799 2.5285001
-0.87549472 -0.59496224 2.5280001
-0.86536485 -0.59574133 2.5280001
-0.85577714 -0.59425575 2.5250001
-0.84576106 -0.59245938 2.5206668
-0.72167969 -0.59343338 2.5215001
-0.71914887 -0.59519804 2.529
-0.9046917 -0.58250469 2.5246668
-0.89671242 -0.58572793 2.5285001
-0.87818021 -0.58818197 2.529
-0.86414802 -0.58818197 2.529
-0.85594666 -0.58503199 2.5255003
-0.84598452 -0.58328986 2.5213335
-0.83543867 -0.58142805 2.5200002
-0.82844758 -0.58142805 2.5200002
-0.71872234 -0.58549625 2.5275002
-0.71914887 -0.57882714 2.529
-1.7389427 -0.61326164 2.536
-1.7375714 -0.60574901 2.5340002
-0.89578861 -0.59367979 2.5325003
-0.88858783 -0.5935626 2.5320001
-0.869169 -0.59309375 2.5300002
-0.89274156 -0.58619118 2.5305002
-0.88598359 -0.58636379 2.5312502
-0.87387753 -0.58437949 2.5328002
-0.86734283 -0.58642197 2.5315001
-1.748021 -0.62633854 2.5446668
-1.7427578 -0.6154325 2.5450001
-1.7289994 -0.611691 2.549
-0.71795583 -0.6051504 2.5413334
-0.71885043 -0.59413946 2.5445001
-0.71983922 -0.58788836 2.5480001
-1.7479295 -0.62282544 2.5560002
-1.7431828 -0.61595935 2.5536668
-1.7361093 -0.61573631 2.5560002
-0.71514589 -0.61349076 2.5565
-0.71472633 -0.60604215 2.5550001
-0.7179333 -0.59729123 2.5580001
-1.7506648 -0.63326955 2.5600002
-1.747529 -0.63600343 2.5646667
-1.7364612 -0.63500118 2.5670002
-1.7506648 -0.62853485 2.5600002
-1.7477564 -0.62659919 2.5650001
-1.7411954 -0.6190654 2.5600002
-0.71365881 -0.61560559 2.5653334
-0.71431756 -0.60059536 2.562
-1.7456169 -0.64374959 2.5735002
-1.7457331 -0.63290185 2.5713334
-1.7384905 -0.63099009 2.5700002
-1.7432437 -0.62623686 2.5700002
-0.7095176 -0.61889017 2.5790002
-0.71262574 -0.6055516 2.573
-1.7462442 -0.64901578 2.585
-0.70638734 -0.62032998 2.585
-0.71089321 -0.61053181 2.5840001
-0.70836329 -0.61519182 2.5835001
-1.7458305 -0.65413785 2.5926666
-0.70432049 -0.62272972 2.595
-0.70775366 -0.61194944 2.5900002
-0.70414978 -0.61507869 2.60325
-1.1711502 -0.68679321 2.6860001
-1.1689701 -0.67807698 2.6810002
-1.1748658 -0.6869033 2.7060001
-1.1770366 -0.6956926 2.7110002
-1.1836953 -0.71528113 2.7380002
-1.1832629 -0.70489573 2.7370002
-1.1823983 -0.69426382 2.7350001
-1.1799228 -0.71606487 2.7410002
-1.1803533 -0.70364773 2.7420001
-1.177972 -0.70762926 2.7443335
-1.1785434 -0.69781584 2.7456667
1.828091 -0.88503999 3.2170002
1.8367307 -0.88490248 3.2165003
1.8470882 -0.88559026 3.2190001
1.8286593 -0.87936342 3.2180002
1.8360237 -0.87710625 3.2170002
1.8405627 -0.87341172 3.2180002
-1.30372 -0.96348858 3.2273333
-0.87504023 -0.95255655 3.2240002
-0.86542487 -0.95181787 3.2215002
-0.85350764 -0.95181787 3.2215002
-0.84470189 -0.95196563 3.2220001
-0.87042522 -0.94806182 3.2290001
-0.86418551 -0.94776821 3.2280002
-0.85640186 -0.94597322 3.228667
1.8536174 -0.89182073 3.2200003
1.8607278 -0.89237469 3.2220001
1.8278053 -0.88480788 3.2270002
1.854089 -0.8845337 3.2260003
1.8647704 -0.88834137 3.2290001
1.826667 -0.87531161 3.2250001
-1.3359437 -0.96792245 3.2355003
-1.3284018 -0.96896952 3.2390001
-1.3135757 -0.96388751 3.2320001
-1.3028287 -0.96178973 3.2350001
-1.3070303 -0.95669293 3.2380002
-0.8908174 -0.95669293 3.2380002
-0.88318914 -0.95492023 3.2320001
-0.87884003 -0.95070428 3.2380002
-0.83640224 -0.95610207 3.2360001
-0.87123394 -0.94296503 3.2320001
-0.86472094 -0.9423815 3.2300003
-0.85303712 -0.94267327 3.2310002
-0.84745467 -0.9460988 3.2325001
1.7956637 -0.90307361 3.2390001
1.786678 -0.89708304 3.2390001
1.7959229 -0.89471692 3.2376668
1.8046495 -0.89708304 3.2390001
1.8284936 -0.89256632 3.2335002
1.8240952 -0.88291585 3.2310002
1.8616766 -0.88373566 3.2340002
1.8705454 -0.88510197 3.2390001
-1.3565391 -0.97797012 3.2490001
-1.3244526 -0.9704653 3.2440002
-1.3000526 -0.97016615 3.2430003
-1.3461753 -0.96626538 3.2433336
-1.3356283 -0.96387088 3.2420001
-1.3262248 -0.96357358 3.2410002
-1.3000526 -0.96416819 3.2430003
-1.3188592 -0.95876116 3.2450001
-0.89985269 -0.959943 3.2490001
-0.88783461 -0.95393395 3.2490001
-0.84368885 -0.95158511 3.2410002
-0.83170038 -0.95757931 3.2410002
-0.8274895 -0.95964754 3.2480001
-0.84577137 -0.94792491 3.2490001
1.7910908 -0.90530407 3.2470002
1.806321 -0.90391004 3.2420001
1.8145531 -0.90502524 3.2460001
1.8259931 -0.90474647 3.2450001
1.7767119 -0.89711291 3.2463334
1.7847018 -0.89409995 3.242667
1.793222 -0.89136761 3.2400002
1.8057638 -0.89164275 3.2410002
1.8158751 -0.89519006 3.243
1.8266817 -0.89609808 3.242667
1.822433 -0.88646829 3.244
-1.3569567 -0.97226024 3.2500002
-1.3569567 -0.96624935 3.2500002
-0.82274693 -0.96714127 3.2530003
-0.81798583 -0.96862781 3.2580001
-0.89590698 -0.95312226 3.2565002
-0.84027928 -0.95452118 3.2510002
-0.8350364 -0.95540202 3.2540002
-0.88974744 -0.94996727 3.256
1.765403 -0.90151447 3.2550001
1.7703348 -0.90096051 3.2530003
1.7851028 -0.90683758 3.2525001
1.7664878 -0.89604455 3.2570002
1.7730682 -0.8948065 3.2525001
-0.84286398 -0.95142603 3.2610002
-0.83683276 -0.95142603 3.2610002
1.8262343 -0.91537905 3.2615001
-0.81088191 -0.9806366 3.2780001
-0.79536158 -0.98018789 3.2765002
-0.81594771 -0.97338474 3.2740002
-0.80555582 -0.98153406 3.2810001
-0.78431612 -0.98153406 3.2810001
-0.77347457 -0.98317945 3.2865002
-0.76447374 -0.98332906 3.2870002
-0.75409222 -0.98168361 3.2815003
-0.81310827 -0.97724974 3.2870002
-0.80727446 -0.97754705 3.2880001
-0.7963326 -0.97531724 3.2805002
-0.76386684 -0.98037148 3.2975001
-0.74083203 -0.98422652 3.2900002
-0.73564047 -0.98542315 3.2940001
-0.72650111 -0.98542315 3.2940001
-0.78694564 -0.97873628 3.2920003
-0.77547455 -0.97962821 3.2950001
-0.75368834 -0.97903359 3.2930002
-0.74714386 -0.97843897 3.2910001
-0.74398446 -0.98230392 3.3040001
-0.73526406 -0.98289853 3.3060002
-0.72477371 -0.98111475 3.3000002
-0.68432373 -0.99050879 3.3110001
-0.67493248 -0.9937467 3.3150003
-0.66796392 -0.99964255 3.3210001
-0.6836257 -0.98780411 3.3225002
-0.6747151 -0.98825008 3.3240001
2.2378714 -0.93488503 3.3310001
2.2424304 -0.93937564 3.3470001
2.2367127 -0.94218224 3.3570001
2.2422533 -0.94190156 3.3560002
2.2351549 -0.95347941 3.3640001
2.2351549 -0.94414687 3.3640001
2.2368841 -0.96312273 3.3760002
2.2368841 -0.95375872 3.3760002
1.6478497 -1.0670366 3.5890002
1.6373066 -1.0821184 3.5950003
1.6457896 -1.084461 3.5917501
1.6386728 -1.0730387 3.598
1.6463617 -1.0748711 3.5930002
1.6340594 -1.0743803 3.6025
-1.9339104 -1.165025 3.6150002
1.5627952 -1.1280198 3.7020001
1.5528675 -1.1444892 3.7110002
1.5553782 -1.139465 3.7170002
1.5605717 -1.1313715 3.7130001
1.5455692 -1.1527132 3.7265
1.5466061 -1.1431437 3.7290001
1.5510032 -1.1447452 3.723
1.5453618 -1.1353327 3.7260001
1.5540267 -1.1341139 3.7220001
-0.48943657 -1.2913178 3.9060001
-0.51123989 -1.2844224 3.9070003
-0.50362688 -1.2834362 3.9040003
-0.49640641 -1.2834362 3.9040003
-0.48563653 -1.2836006 3.9045
-0.47535306 -1.28508 3.9090002
-0.43920454 -1.28508 3.9090002
-0.51137072 -1.2775234 3.9080002
-0.50375587 -1.2765427 3.9050002
-0.49640641 -1.2762158 3.9040003
-0.48563653 -1.2763791 3.9045
-0.47529227 -1.2740729 3.9085002
-0.46812335 -1.2742355 3.9090002
-0.44637716 -1.2740729 3.9085002
-0.43531156 -1.277033 3.9065003
-0.42420185 -1.2762158 3.9040003
-0.41719499 -1.2768695 3.9060001
-0.52676833 -1.2942933 3.9150002
-0.51899672 -1.2929709 3.9110003
-0.48282969 -1.2929709 3.9110003
-0.47596109 -1.2939626 3.9140003
-0.46516252 -1.2941279 3.9145002
-0.45436028 -1.2942933 3.9150002
-0.44700527 -1.2939626 3.9140003
-0.43636876 -1.2946239 3.9160004
-0.42561439 -1.2949544 3.9170003
-0.41858351 -1.2956157 3.9190001
-0.53387272 -1.2867237 3.9140003
-0.52636462 -1.2860662 3.9120002
-0.51899672 -1.2857374 3.9110003
-0.46468627 -1.285573 3.9105
-0.45401213 -1.2860662 3.9120002
-0.44666266 -1.2857374 3.9110003
-0.43219584 -1.2857374 3.9110003
-0.4248538 -1.2854087 3.9100001
-0.41442814 -1.2867236 3.914
-0.40388089 -1.28771 3.9170003
-0.53353167 -1.2750509 3.9115002
-0.52643192 -1.2753749 3.9125004
-0.46107051 -1.2747247 3.9105
-0.45401213 -1.2752142 3.9120002
-0.41039068 -1.2781771 3.9100001
-0.40315914 -1.2781771 3.9100001
-0.39623135 -1.2755411 3.9130001
-0.3315205 -1.273546 3.9180002
-0.32435691 -1.2738711 3.9190001
-0.31710872 -1.2738711 3.9190001
-0.55017191 -1.2909974 3.9270003
-0.53482753 -1.2962768 3.9210002
-0.41165018 -1.2966075 3.9220002
-0.40460268 -1.2972686 3.9240003
-0.39284015 -1.2959503 3.9273336
-0.38302544 -1.2906687 3.9260001
-0.37595573 -1.2913262 3.9280002
-0.36515141 -1.2916549 3.9290001
-0.3360846 -1.2916549 3.9290001
-0.54563528 -1.2852355 3.9205003
-0.39704144 -1.2890249 3.9210002
-0.38606513 -1.2814461 3.9200001
-0.37538144 -1.2821 3.9220002
-0.36464071 -1.2825903 3.9235001
-0.35380054 -1.2827537 3.9240003
-0.34663141 -1.2830807 3.9250002
-0.33552909 -1.2822634 3.9225001
-0.32468799 -1.2824268 3.9230001
-0.31408226 -1.283571 3.9265003
-0.27410826 -1.2761464 3.9260001
-0.26677915 -1.2758213 3.9250002
-0.25958598 -1.2761464 3.9260001
-0.55122268 -1.3043779 3.9345002
-0.54387665 -1.3078506 3.9340003
-0.36695388 -1.3034433 3.9353335
-0.35488251 -1.3012358 3.9360001
-0.34391981 -1.3010705 3.9355001
-0.33308589 -1.3050437 3.9365001
-0.32576394 -1.3012358 3.9360001
-0.31856522 -1.3015664 3.9370003
-0.54332364 -1.2992523 3.9300003
-0.3834157 -1.2992523 3.9300003
-0.37633857 -1.2999134 3.9320002
-0.35434151 -1.2919837 3.9300003
-0.34707296 -1.2919837 3.9300003
-0.32526734 -1.2919837 3.9300003
-0.31464219 -1.2931342 3.9335003
-0.27501589 -1.2949424 3.9390001
-0.26402107 -1.2946137 3.9380002
-0.30392501 -1.2866765 3.9360001
-0.29687148 -1.2876573 3.9390001
-0.28583616 -1.2871668 3.9375
-0.27445737 -1.285042 3.9310002
-0.26711899 -1.2847152 3.9300003
-0.25637776 -1.2855325 3.9325004
-0.24568789 -1.2866765 3.9360001
-0.23369341 -1.2850115 3.9383335
-0.22399114 -1.2838521 3.9385002
-0.56027389 -1.3048724 3.9470003
-0.55928022 -1.3098452 3.9400003
-0.31159997 -1.3028888 3.9410002
-0.30485162 -1.305203 3.9480002
-0.27550462 -1.3045418 3.9460001
-0.26442334 -1.3038806 3.9440002
-0.25354594 -1.3042113 3.9450002
-0.24618724 -1.3038806 3.9440002
-0.23521531 -1.3037152 3.9435
-0.22436081 -1.3042113 3.9450002
-0.55942219 -1.2955999 3.9410002
-0.30446553 -1.2962574 3.9430001
-0.29378766 -1.2974081 3.9465003
-0.28258777 -1.2962574 3.9430001
-0.25322461 -1.2952712 3.9400003
-0.24593757 -1.2952712 3.9400003
-0.23503637 -1.2954355 3.9405003
-0.22413331 -1.2955999 3.9410002
-0.21706451 -1.2969149 3.9450002
-0.20627591 -1.2905993 3.9480002
-0.21684442 -1.2846665 3.9410002
-0.56843668 -1.314167 3.9530001
-0.60560423 -1.3008599 3.9570003
-0.59828579 -1.3008599 3.9570003
-0.57633036 -1.3008599 3.9570003
-0.56915563 -1.308509 3.9580002
-0.29423431 -1.3066907 3.9525001
-0.28308943 -1.3058642 3.9500003
-0.21384639 -1.3068559 3.9530001
-0.20319048 -1.3088396 3.9590001
-0.56829286 -1.2992162 3.9520001
-0.21008727 -1.2988874 3.9510002
-0.20288254 -1.2995449 3.9530001
-0.1958683 -1.2941952 3.9590001
-0.61462659 -1.311815 3.9680002
-0.59575224 -1.3106579 3.9645002
-0.58512378 -1.3114843 3.9670002
-0.57691294 -1.3168267 3.9610002
-0.61369723 -1.3025037 3.9620001
-0.6063695 -1.3098314 3.9620001
-0.59156471 -1.3021749 3.9610002
-0.58453381 -1.3028324 3.9630003
-0.57705855 -1.3098314 3.9620001
-0.1960662 -1.3028324 3.9630003
-0.18902236 -1.2974643 3.9690001
-0.60513866 -1.3224783 3.9780002
-0.59425294 -1.3228108 3.9790001
-0.58600879 -1.324491 3.973
-0.19680831 -1.3224783 3.9780002
-0.62368959 -1.3154515 3.9790001
-0.19641252 -1.3124762 3.9700003
-0.18949862 -1.3154515 3.9790001
-0.18560749 -1.306613 3.9745002
-0.1818648 -1.2987719 3.9730003
-0.61380422 -1.3326771 3.9865003
-0.59529835 -1.33251 3.9860003
-0.62525707 -1.3261352 3.9890001
-0.61648536 -1.3231431 3.9800003
-0.18992724 -1.3258028 3.9880002
-0.63168317 -1.3167739 3.9830003
-0.18227677 -1.3164433 3.9820001
-0.17513168 -1.3144112 3.987
-0.16784187 -1.3113799 3.9890001
-0.63358629 -1.3355186 3.9950001
-0.62541384 -1.3338472 3.9900002
-0.6032753 -1.3338472 3.9900002
-0.6408146 -1.3204105 3.9940002
-0.63326913 -1.3274649 3.9930003
-0.18268874 -1.3268001 3.9910002
-0.17539524 -1.3274649 3.9930003
-0.16569906 -1.3237563 3.9966667
-0.12382372 -1.3287948 3.9970002
-0.16054466 -1.3120373 3.9910002
-0.15327843 -1.3130236 3.9940002
-0.14607415 -1.3146673 3.9990001
-0.64273995 -1.3317869 4.006
-0.16102737 -1.3344913 4.0030003
-0.15377733 -1.3358257 4.007
-0.1464029 -1.3324517 4.0080004
-0.10933887 -1.3324517 4.0080004
-0.15358545 -1.3230553 4.0020003
-0.14622027 -1.323386 4.0030003
-0.13382567 -1.3253008 4.0013337
-0.12394763 -1.3227247 4.0010004
-0.11660603 -1.323386 4.0030003
-0.10928431 -1.3243777 4.006
-0.13509759 -1.315818 4.0025005
-0.12400959 -1.3159823 4.0030003
-0.11660603 -1.3159823 4.0030003
-0.10925703 -1.3166399 4.0050001
-0.64450485 -1.3503027 4.0170002
-0.64354217 -1.3408674 4.0110002
-0.10220581 -1.3361087 4.0190001
-0.10212952 -1.3276837 4.0160003
-0.65388179 -1.3543364 4.0290003
-0.66133344 -1.3468847 4.0290003
-0.65323263 -1.3455476 4.0250001
-0.67590106 -1.3387682 4.0270004
-0.66472912 -1.3387682 4.0270004
-0.65274578 -1.337106 4.0220003
-0.09500847 -1.3319814 4.0290003
-0.094961308 -1.3238723 4.0270004
-0.68504596 -1.3570256 4.0370002
-0.67757946 -1.3570256 4.0370002
-0.66588557 -1.3560171 4.0340004
-0.7224676 -1.345993 4.0375004
-0.71455753 -1.3414278 4.0350003
-0.68462169 -1.3449929 4.0345001
-0.67674029 -1.3478876 4.0320001
-0.66895109 -1.3472191 4.0300002
-0.095032051 -1.3472191 4.0300002
-0.087665483 -1.3448249 4.0340004
-0.095032051 -1.3397655 4.0300002
-0.087687217 -1.3339651 4.0350003
-0.065347537 -1.3349569 4.0380001
-0.07267157 -1.3248585 4.0300002
-0.065218076 -1.3248585 4.0300002
-0.73548716 -1.3605552 4.0475001
-0.72434646 -1.3607233 4.0480003
-0.6943993 -1.3607233 4.0480003
-0.68606406 -1.36652 4.0430002
-0.73147166 -1.3525678 4.046
-0.71544296 -1.3505621 4.04
-0.70519328 -1.3524007 4.0454998
-0.69354165 -1.3515649 4.0430002
-0.69302702 -1.3430901 4.04
-0.080383532 -1.3440874 4.0430002
-0.072960094 -1.3450848 4.046
-0.065509371 -1.3457496 4.0480003
-0.058022585 -1.3457496 4.0480003
-0.080363646 -1.3362793 4.0420003
-0.072869927 -1.3359487 4.0410004
-0.052994404 -1.3348869 4.0453334
-0.69577163 -1.370914 4.0560002
-0.71443522 -1.3632443 4.0555
-0.70362002 -1.3640847 4.0580001
-0.74023324 -1.3549079 4.053
-0.073086321 -1.3549079 4.053
-0.065606467 -1.3552423 4.0540004
-0.058065586 -1.3542393 4.0510001
-0.043080918 -1.3355085 4.0510001
-0.71270245 -1.3746319 4.0670004
-0.70500714 -1.3742939 4.066
2.070437 -1.4086896 4.2850003
2.0310273 -1.5279478 4.4960003
2.0328343 -1.5209844 4.5
2.0270808 -1.5344049 4.5150003
2.0317097 -1.5263923 4.5160003
2.0213161 -1.554373 4.5490003
2.0244265 -1.5483385 4.5560002
2.0195401 -1.5510573 4.5640001
2.0163865 -1.5635988 4.5760002
2.0166991 -1.5874333 4.5960002
2.017138 -1.5750273 4.5970001
2.0138791 -1.5748748 4.6090002
2.0156269 -1.5933051 4.6130004
2.0173748 -1.5861474 4.6170001
2.010709 -1.6167918 4.6810002
1.363719 -1.6648281 4.7190003
1.3712834 -1.6546965 4.7150002
1.3724468 -1.6473725 4.7190003
1.3567139 -1.6669449 4.7250004
1.3925531 -1.6680032 4.7280002
1.3575753 -1.6592587 4.7280002
1.3642969 -1.6568022 4.7210002
1.3827842 -1.6536591 4.7245002
1.4142642 -1.6590832 4.7275
1.3940258 -1.6610135 4.7330003
1.4026313 -1.6652122 4.7325001
1.3581496 -1.6512125 4.73
1.3943204 -1.6526089 4.7340002
1.4042615 -1.6540053 4.7380004
1.4133226 -1.6543543 4.7390003
1.4223875 -1.6547035 4.7400002
1.9838511 -1.6711909 4.7620001
1.985934 -1.664129 4.7670002
-0.76564032 -1.7364811 4.7720003
-0.76564032 -1.7276552 4.7720003
-0.12196543 -1.727474 4.796
-0.033228621 -1.725673 4.7910004
-0.024362568 -1.7253128 4.7900004
-0.11297731 -1.716812 4.7910004
-0.10420327 -1.7182454 4.7950001
-0.033235557 -1.7171704 4.7920003
-0.024362568 -1.7164537 4.7900004
1.9016318 -1.6930515 4.7990003
1.9101095 -1.6926987 4.7980003
-0.042186223 -1.7207538 4.802
1.9040095 -1.6862813 4.8050003
1.9124981 -1.6859305 4.8040004
1.9051982 -1.6784418 4.8080001
1.9144887 -1.6787909 4.809
-0.1401428 -1.7417748 4.8110003
-0.12232146 -1.7236205 4.8100004
1.9049827 -1.7039881 4.8300004
1.9049827 -1.695055 4.8300004
-0.060448207 -1.7440428 4.842
-0.051663071 -1.7498058 4.8580003
1.9113593 -1.7087418 4.8690004
-0.15108538 -1.7746894 4.8770003
1.912537 -1.7188053 4.8720002
-0.15133321 -1.7685658 4.8850002
1.9074333 -1.7313626 4.8820004
1.9070426 -1.7219805 4.881
-0.23314664 -1.7859471 4.8955002
-0.22402373 -1.7854004 4.8940001
-0.21495031 -1.7852185 4.8935003
-0.20604704 -1.7819673 4.8970003
-0.19707048 -1.7826951 4.8990002
-0.23321807 -1.7729102 4.8970003
-0.22406951 -1.7721862 4.8950005
-0.2150162 -1.7721862 4.8950005
-0.20608911 -1.7732723 4.8980002
1.9015149 -1.7341996 4.8900003
1.9030703 -1.7265668 4.8940001
-0.26081449 -1.7939502 4.9050002
-0.25189665 -1.78597 4.9080005
-0.24252246 -1.7837867 4.9020004
-0.1881249 -1.7837867 4.9020004
-0.17464966 -1.7850603 4.9055004
-0.16092612 -1.7837867 4.9020004
-0.26102719 -1.7772547 4.9090004
-0.25179401 -1.7761686 4.9060001
-0.24252246 -1.7747204 4.9020004
-0.19715093 -1.7743584 4.901
-0.18820165 -1.7754445 4.9040003
-0.17472085 -1.7767117 4.9075003
-0.16099177 -1.7754445 4.9040003
-0.28849968 -1.7968761 4.9130001
-0.27478725 -1.7963275 4.9115
-0.26108035 -1.7866977 4.9100003
1.900598 -1.7416471 4.9110003
1.903694 -1.7353866 4.9190001
1.086301 -1.7890666 4.967
1.0939436 -1.7865452 4.96
1.1033396 -1.7869054 4.9610004
1.1127392 -1.7872655 4.9620004
1.0790662 -1.7923082 4.9760003
1.0965903 -1.7816718 4.9720001
1.0816685 -1.8058559 4.9880004
1.0812583 -1.8113984 5.0290003
1.9153099 -1.7899442 5.0210004
1.9109584 -1.8038889 5.0340004
1.9073144 -1.7999259 5.0490003
1.9084477 -1.8150101 5.052
1.9039909 -1.8243653 5.0650001
1.9043669 -1.8153558 5.0660005
1.1895236 -1.8780701 5.1350002
1.1904502 -1.8700285 5.1390004
1.2018228 -1.882459 5.1470003
1.2022897 -1.8736674 5.1490002
1.1911451 -1.8616101 5.1420002
1.2122835 -1.883922 5.151
1.2234707 -1.8864821 5.1580005
1.2127542 -1.8751229 5.1530004
1.2349229 -1.8894081 5.1660004
1.2256055 -1.8754374 5.1670003
1.8849956 -1.870661 5.1670003
1.8853604 -1.8614649 5.1680002
1.2466455 -1.8926997 5.1750002
1.2569449 -1.8937969 5.1780005
1.2373133 -1.8834925 5.1760001
1.8794318 -1.8746434 5.1780005
1.8794318 -1.8650668 5.1780005
1.2692121 -1.89782 5.1890001
1.2488135 -1.8864036 5.184
1.2593724 -1.8878591 5.1880002
1.2711689 -1.8911341 5.197
1.8758135 -1.8854175 5.1945004
1.2820131 -1.9025747 5.2020001
1.2928756 -1.9044033 5.2070003
1.2834917 -1.8951368 5.2080002
1.3334426 -1.9169744 5.2150002
1.3045071 -1.9073293 5.2150002
1.3149083 -1.9084265 5.2180004
1.324559 -1.9084265 5.2180004
1.2943654 -1.8969563 5.2130003
1.3166722 -1.901323 5.2250004
1.3265897 -1.9016869 5.2260003
1.3361274 -1.906334 5.2255001
1.3670805 -1.923591 5.2330003
1.3780743 -1.925429 5.2380004
1.3472084 -1.9131811 5.2310004
1.3581802 -1.9150097 5.2360001
1.3490112 -1.9060535 5.2380004
1.3882918 -1.9261642 5.2400002
1.4472684 -1.927267 5.243
1.457799 -1.9283696 5.2460003
1.3704766 -1.9186672 5.2460003
1.4489245 -1.9197644 5.2490001
1.8368961 -1.9193987 5.2480001
1.400918 -1.9302076 5.2510004
1.3822838 -1.9215931 5.2540002
1.3930608 -1.923056 5.2580004
1.4408617 -1.9219588 5.2550001
1.4591883 -1.9204959 5.2510004
1.8389962 -1.9118758 5.2540002
1.4041195 -1.9248848 5.2630005
1.8341533 -1.9267135 5.2680001
1.8358941 -1.9187897 5.2730002
1.833068 -1.9358569 5.2930002
1.8268955 -1.9446001 5.3035002
1.8281012 -1.931162 5.3070002
-0.92134851 -2.043854 5.3710003
-0.9216916 -2.0346777 5.3730001
-0.92254931 -2.0266244 5.3780003
1.801829 -2.0179479 5.4350004
1.7889371 -2.0261164 5.4570003
1.7967221 -2.0235174 5.4500003
1.7915597 -2.0189791 5.4650002
1.783734 -2.0316856 5.4720001
1.7856898 -2.0237818 5.4780002
-0.83915293 -2.0966148 5.4830003
-0.82946569 -2.0977619 5.4860001
-0.83052409 -2.0902793 5.493
-0.84045386 -2.0846286 5.4914999
1.7810683 -2.0351429 5.4950004
-0.82155955 -2.1034977 5.5010004
-0.82245564 -2.0956068 5.5070004
1.7741281 -2.0439382 5.5050001
1.7747726 -2.0344956 5.5070004
1.7757396 -2.0559852 5.5100002
-0.81448287 -2.1115277 5.5220003
-0.81507289 -2.1028368 5.5260005
-0.80572641 -2.1153517 5.5320001
-0.80645466 -2.1070228 5.5370002
-0.79736435 -2.1254468 5.5450001
1.7770841 -2.0745449 5.5460005
1.777725 -2.0599034 5.5480003
-0.7883864 -2.1340361 5.5540004
-0.79808336 -2.1119697 5.5500002
-0.77979547 -2.1386471 5.5660005
-0.78938007 -2.1264408 5.5610003
-0.7892381 -2.1157751 5.5600004
-0.77019238 -2.1405683 5.5710001
-0.78049594 -2.1302645 5.5710001
-0.7707454 -2.1317942 5.5750003
-0.76152563 -2.145179 5.5830002
-0.76179844 -2.135618 5.585
-0.75281447 -2.1497898 5.5950003
-0.752949 -2.1398242 5.5960002
-0.74326271 -2.1520951 5.6010003
-0.74326271 -2.141736 5.6010003
-0.73499727 -2.1582429 5.6170001
-0.73486644 -2.1474719 5.6160002
-0.72667265 -2.1643906 5.6330004
-0.71701735 -2.1666961 5.6390004
-0.72680169 -2.1543548 5.6340003
-0.71714449 -2.1566491 5.6400003
-0.70796633 -2.1709228 5.6500001
-0.70821697 -2.1612377 5.6520004
-0.69875121 -2.1852331 5.6600003
-0.68925583 -2.1883218 5.6680002
-0.69912159 -2.1759176 5.6630001
-0.68974227 -2.1793759 5.6720004
-0.68080872 -2.1948853 5.6850004
-0.68176675 -2.1874447 5.6930003
-0.67218077 -2.2010627 5.7010002
-0.66256523 -2.2041512 5.7090001
-0.67359567 -2.1951294 5.7130003
-0.65360534 -2.2095563 5.723
-0.64448124 -2.2145755 5.7360001
-0.65486157 -2.2031982 5.7340002
0.36322284 -2.1925933 5.7340002
0.37363228 -2.1914461 5.7310004
0.38429883 -2.1918285 5.7320004
0.36328617 -2.1823688 5.7350001
0.3735671 -2.1804662 5.7300005
0.38449997 -2.1823688 5.7350001
-0.63453555 -2.216892 5.7420001
-0.64538014 -2.2070405 5.7440004
-0.63508809 -2.2081933 5.7470002
-0.62565428 -2.2337189 5.7580004
-0.62554562 -2.2226832 5.7570004
-0.62565428 -2.21242 5.7580004
0.35409367 -2.2017705 5.7580004
0.39648473 -2.2006233 5.7550001
0.35372472 -2.1888378 5.7520003
0.39634696 -2.1892183 5.7530003
-0.61671376 -2.2399256 5.7740002
-0.61671376 -2.2292466 5.7740002
-0.60792398 -2.2469084 5.7920003
-0.60802895 -2.2365823 5.7930002
-0.59824276 -2.2507877 5.802
-0.59855211 -2.2412152 5.8050003
0.31403854 -2.2197425 5.8050003
0.28250915 -2.225096 5.8190002
0.29306981 -2.2235665 5.8150001
0.30356345 -2.2216544 5.8100004
-0.58963841 -2.2589345 5.8230004
-0.58994222 -2.2493231 5.8260002
0.26134345 -2.2281551 5.8270001
0.27202711 -2.2273903 5.8250003
-0.58075756 -2.2663052 5.8420005
-0.58105582 -2.2566586 5.8450003
-0.57083082 -2.2697966 5.8510003
-0.57102597 -2.2597473 5.8530002
-0.56087083 -2.284126 5.8600001
-0.56125367 -2.2748396 5.8640003
-0.55097133 -2.2880239 5.8700004
-0.54075885 -2.2853158 5.8770003
-0.55125296 -2.278331 5.8730001
-0.53088111 -2.2950399 5.8880005
-0.53142214 -2.2864778 5.8940001
-0.52131599 -2.3008866 5.9030004
-0.51091713 -2.3032255 5.9090004
-0.52184588 -2.2922966 5.9090004
-0.51143593 -2.2946243 5.9150004
-0.50117302 -2.3086824 5.9230003
-0.50159609 -2.2996674 5.9280005
-0.49112886 -2.3129699 5.9340005
-0.48047757 -2.3145292 5.9380002
-0.49145991 -2.3035467 5.9380002
-0.48080122 -2.3050985 5.9420004
-0.47064167 -2.3146739 5.9525003
-0.46098381 -2.327002 5.9700003
-0.45144963 -2.3347979 5.9900002
0.13929157 -2.3963835 6.1480002
0.37770814 -2.3940446 6.1420002
0.38913113 -2.3944345 6.1430001
0.4006882 -2.3956039 6.1460004
0.41212228 -2.3959937 6.1470003
0.42383564 -2.3979425 6.1520004
1.3824258 -2.4755065 6.3210001
1.3709519 -2.4642055 6.3220005
1.3824258 -2.4638159 6.3210001
