# .PCD v0.7 - Point Cloud Data file format
VERSION 0.7
FIELDS x y z
SIZE 4 4 4
TYPE F F F
COUNT 1 1 1
WIDTH 1393
HEIGHT 1
VIEWPOINT 0 0 0 1 0 0 0
POINTS 1393
DATA ascii
2.2121873 -1.5242779 3.1790001
2.2090838 -1.5232524 3.1830001
2.2033885 -1.2804877 3.2090001
2.207258 -1.2792906 3.2060001
2.2049148 -1.2757455 3.217
2.2134542 -1.2769357 3.2150002
2.2180197 -1.2523715 3.2130001
2.2157476 -1.2757335 3.2270002
2.2044327 -1.2669888 3.2250001
2.2111487 -1.26458 3.2290001
2.2182736 -1.2558795 3.2220001
2.2196505 -1.1672171 3.2240002
2.2191808 -1.2717326 3.2320001
2.2159386 -1.263329 3.2360001
2.2179966 -1.2565153 3.2390001
2.2060156 -1.19661 3.2390001
2.2113233 -1.1902518 3.2380002
2.2035537 -1.1846918 3.2310002
2.2179966 -1.1726478 3.2390001
2.2066243 -1.1653966 3.2355001
2.2173119 -1.1662971 3.2380002
2.1987762 -1.3132622 3.2460001
2.2154207 -1.312453 3.2440002
2.1994536 -1.3016561 3.2470002
2.2114642 -1.3076614 3.2470002
2.2020626 -1.2996517 3.2420001
2.2114642 -1.2626204 3.2470002
2.2161036 -1.2588429 3.2450001
2.2161036 -1.1988266 3.2450001
2.2126889 -1.1730099 3.2400002
2.2027419 -1.168098 3.2430003
2.2174695 -1.1635334 3.2470002
2.1971908 -1.3237364 3.257
2.2035179 -1.3221107 3.2530003
2.2102134 -1.3225172 3.2540002
2.1970685 -1.3150309 3.2553337
2.2081759 -1.3152851 3.2510002
2.2122011 -1.3128829 3.2525001
2.2028403 -1.3096751 3.2520001
2.1988525 -1.2837937 3.2550001
2.2081759 -1.2611705 3.2510002
2.2102134 -1.2683526 3.2540002
2.207582 -1.2582464 3.2590001
2.2145839 -1.2570882 3.256
2.2051694 -1.2070559 3.2510002
2.2169127 -1.208541 3.2550001
2.2028403 -1.1713398 3.2520001
2.2162318 -1.1660419 3.2540002
2.2202013 -1.158954 3.2510002
2.2252574 -0.9915117 3.2540002
2.218956 -0.98067915 3.2580001
2.2228651 -0.98443341 3.2505002
2.2142396 -0.97390556 3.2555001
2.2095342 -0.96112484 3.2530003
2.2162318 -0.9614203 3.2540002
2.2009165 -1.2915467 3.2670002
2.2002428 -1.285111 3.2660003
2.2049322 -1.2601769 3.2640002
2.2042568 -1.2537558 3.2630002
2.2141101 -1.2527652 3.265667
2.2069588 -1.2492504 3.2670002
2.2102916 -1.2356511 3.2630002
2.2042565 -1.2024562 3.2630002
2.2130013 -1.1707003 3.2670002
2.2156472 -1.1689086 3.2620001
2.2247405 -1.0013618 3.2665
2.2257669 -0.99577755 3.2680001
2.2183642 -0.98308718 3.2660003
2.2230425 -0.98852199 3.2640002
2.2270305 -0.96348852 3.2610002
2.2163265 -0.95804447 3.2630002
2.2257669 -0.95951253 3.2680001
2.1921818 -1.2935234 3.2720001
2.2015924 -1.2955 3.2770002
2.1962016 -1.2898327 3.2780001
2.2110119 -1.2454914 3.2730002
2.209661 -1.2386806 3.2710001
2.1968715 -1.2113875 3.279
2.2015924 -1.2106485 3.2770002
2.2042849 -1.2057774 3.2720003
2.2090006 -1.1810648 3.279
2.2143896 -1.1867673 3.2780001
2.2113497 -1.1760561 3.2735002
2.2170653 -1.009408 3.2730002
2.2231188 -0.99427438 3.2730002
2.2167268 -0.96385956 3.2725
2.2281833 -0.79221022 3.276
2.1988816 -1.3399671 3.2820001
2.1944818 -1.2954272 3.2845001
2.203608 -1.2906197 3.2800002
2.1995516 -1.2857282 3.2830002
2.2062955 -1.2830793 3.2840002
2.1982117 -1.2788767 3.2810001
2.1968203 -1.2451183 3.2880001
2.2056234 -1.2067933 3.2830002
2.2140567 -1.2003556 3.2820001
2.2096546 -1.1968328 3.2890003
2.2067955 -1.1861711 3.2847502
2.2130427 -1.1771504 3.2850001
2.2140548 -1.0121835 3.2820001
2.2197938 -0.9647975 3.2860003
2.2058835 -1.3277979 3.2970002
2.1960695 -1.2969154 3.2960002
2.2075913 -1.2538631 3.2950001
2.1994929 -1.2101016 3.2920001
2.2062514 -1.2104691 3.2930002
2.2103262 -1.2032815 3.2900002
2.2062514 -1.1952441 3.2930002
2.2041698 -1.1852179 3.2990003
2.2123418 -1.1800171 3.2930002
2.2055814 -1.1796588 3.2920001
2.1967359 -1.1662068 3.2970002
2.222496 -0.97205681 3.2900002
2.1975448 -1.3225999 3.3043334
2.2048378 -1.3229027 3.3000002
2.2037859 -1.3179965 3.303
2.2075105 -1.2450664 3.3040001
2.2046225 -1.2054384 3.30425
2.2048378 -1.1947322 3.3000002
2.1979465 -1.1792741 3.3080001
2.2068074 -1.176523 3.306
2.2061741 -1.164921 3.302
2.1958039 -1.3223858 3.3140001
2.198508 -1.3146094 3.3150003
2.1992755 -1.3085459 3.3100002
2.1951413 -1.217821 3.3130002
2.1991169 -1.201611 3.3190002
2.2093952 -1.194392 3.3160002
2.1927366 -1.1844804 3.3140001
2.2093952 -1.188259 3.3160002
2.1853006 -1.3394771 3.3260002
2.1907933 -1.3206255 3.325
2.1849723 -1.3177465 3.3255
2.1944501 -1.3162605 3.3243334
2.1956213 -1.2583722 3.3230002
2.198925 -1.2110245 3.3280001
2.2063334 -1.1946489 3.3252501
2.1801846 -1.3377353 3.3370001
2.1851778 -1.3104905 3.3305001
2.1947465 -1.3106872 3.3310001
2.1960642 -1.2621591 3.3330002
2.2000177 -1.2150273 3.3390002
2.1879289 -1.1932757 3.3300002
2.1912141 -1.1858163 3.335
2.1798761 -1.2980242 3.3460002
2.1847579 -1.2972482 3.3440001
2.1935632 -1.2988 3.348
2.1964703 -1.2535802 3.3430002
2.1997554 -1.2121102 3.348
2.2004125 -1.2062782 3.3490002
2.188977 -1.1972175 3.3410001
2.1935632 -1.1935338 3.348
2.192908 -1.1869869 3.3470001
2.1896322 -1.1790327 3.3420002
2.1816587 -1.2947314 3.3535001
2.1943936 -1.2949244 3.3540001
2.1883454 -1.2160926 3.3590002
2.1953721 -1.2148254 3.3555002
2.1849144 -1.2097001 3.3585002
2.1946642 -1.2067288 3.3560002
2.1863909 -1.1839719 3.3560002
2.1906378 -1.1829134 3.3530002
2.1785116 -1.2983991 3.3630002
2.1855929 -1.2926916 3.3643334
2.1958647 -1.2914108 3.3610001
2.1960158 -1.2871065 3.3660002
2.1971712 -1.2797395 3.3630002
2.1942089 -1.2255801 3.3680003
2.1827826 -1.2164546 3.3600001
2.1851616 -1.2053399 3.3636668
2.1937351 -1.1955934 3.3625002
2.1882284 -1.2916951 3.3780003
2.1941736 -1.2861311 3.3743336
2.1851056 -1.229219 3.3780003
2.1918776 -1.2277634 3.3740001
2.1899285 -1.2017331 3.3710001
2.1899285 -1.1954983 3.3710001
2.1759081 -1.3017851 3.3880002
2.1871483 -1.3010167 3.3860002
2.1752658 -1.2951366 3.3870001
2.1839187 -1.2928423 3.381
2.1783094 -1.2869697 3.3820002
2.1858563 -1.2877307 3.3840001
2.1921151 -1.2877307 3.3840001
2.1771097 -1.263069 3.3850002
2.1765501 -1.2269537 3.3890002
2.1795976 -1.2063675 3.3840001
2.1858563 -1.2032363 3.3840003
2.1914673 -1.2028806 3.3830001
2.1828182 -1.189346 3.3890002
2.1873269 -1.304859 3.3960001
2.1910241 -1.3095956 3.3920002
2.1769412 -1.2917264 3.3945003
2.1834624 -1.2962837 3.3900001
2.1848288 -1.2486985 3.3970003
2.1835394 -1.2354051 3.3950002
2.1778347 -1.2088629 3.3910003
2.1835413 -1.2040098 3.395
2.1797614 -1.1911007 3.3940001
2.1845057 -1.1982598 3.3965001
2.2048702 -0.90234905 3.3940001
2.1899033 -1.3126842 3.4000001
2.189395 -1.2468045 3.4090002
2.1792476 -1.2194346 3.4030001
2.1811688 -1.2142103 3.4060001
2.1818092 -1.2082655 3.4070001
2.1818933 -1.2939687 3.4170001
2.1761823 -1.2861416 3.4130001
2.1799779 -1.2612616 3.4140003
2.1828117 -1.2547636 3.4135001
2.1875727 -1.2493647 3.4160001
2.1818933 -1.2118119 3.4170001
2.1733837 -1.3046646 3.4285002
2.1825774 -1.3044744 3.4280002
2.1800306 -1.2966194 3.4240003
2.1717932 -1.2891562 3.4210002
2.1692641 -1.2787408 3.427
2.1800306 -1.264956 3.4240003
2.1762371 -1.2569227 3.428
2.1800306 -1.2586232 3.4240003
2.1787572 -1.2135851 3.4220002
2.1667128 -1.3031995 3.4330001
2.1749611 -1.3011637 3.4360001
2.1781418 -1.2992703 3.4310002
2.1762271 -1.2764868 3.4380002
2.1749611 -1.2693893 3.4360001
2.1800463 -1.2686504 3.4340003
2.1876707 -1.224905 3.4360001
2.1765523 -1.2176635 3.4335003
2.1895809 -0.86342949 3.4390001
2.1660271 -1.2716058 3.4420002
2.1717618 -1.2776005 3.4410002
2.1755767 -1.2461419 3.4420002
2.1758924 -1.2240392 3.4425001
2.1851249 -1.227044 3.4420002
2.1851249 -0.86418271 3.4420002
2.1965799 -0.86368054 3.4400001
2.1646805 -1.2745614 3.45
2.1834755 -1.2378892 3.4545002
2.1774421 -1.2298959 3.45
2.1780312 -0.9252246 3.4560003
2.1882539 -0.92549235 3.4570003
2.1799667 -0.8927483 3.4540002
2.1882539 -0.89352369 3.4570003
2.1873045 -0.88354909 3.4555001
2.1850889 -0.87307787 3.4520001
2.193378 -0.87383664 3.4550002
2.1695604 -1.2683831 3.4680002
2.1805007 -1.2416518 3.4650002
2.1762252 -1.2331047 3.4650002
2.1773543 -1.2270615 3.4600003
2.183018 -1.2238374 3.4690001
2.1833878 -0.92109263 3.4645002
2.1926849 -0.92095965 3.4640002
2.1939509 -0.91508102 3.4660001
2.187856 -0.9055984 3.4665003
2.1917353 -0.90455157 3.4625001
2.1764419 -1.2659718 3.4790001
2.1635733 -1.2402341 3.4790001
2.1803668 -1.2452352 3.4750001
2.1690719 -1.2364831 3.4775002
2.1748781 -1.2361267 3.4765
2.1880522 -0.91476983 3.4770002
2.1900649 -0.9161371 3.4700003
2.1842766 -0.90356183 3.4710002
2.1648169 -1.2731377 3.4810002
2.1669936 -1.2647505 3.4845002
2.1772838 -1.2618906 3.4855003
2.1666827 -1.2549039 3.4840002
2.1725025 -1.2545438 3.4830003
2.1666827 -1.2484603 3.4840002
2.1741624 -1.2472061 3.4805002
2.1750989 -1.2284237 3.4820001
2.1891508 -0.92115337 3.4890001
2.1833236 -0.92141742 3.4900002
2.1584215 -0.98627508 3.6215
2.1585565 -0.99276799 3.6330001
2.160933 -0.9871344 3.6370001
2.139231 -1.056892 3.6690001
2.1460168 -1.056892 3.6690001
2.152961 -1.0553077 3.6635003
2.1569395 -1.045429 3.6645002
2.154563 -1.0509648 3.6720002
2.1489413 -1.0447422 3.6740003
2.1533895 -1.0436047 3.6700001
2.1531336 -1.0041127 3.6870003
2.1503091 -0.99415559 3.6880002
2.1497259 -0.98706686 3.6870003
2.1476853 -0.97591043 3.6835003
2.1497259 -0.96660954 3.6870003
2.1088967 -1.1262821 3.8360002
2.1187496 -1.1455101 3.8410001
2.1193011 -1.1351496 3.8420002
2.1116457 -1.1206462 3.8410001
2.1255119 -1.1264557 3.8446667
2.1242657 -1.1235639 3.8510001
2.1149526 -1.1136012 3.8535004
2.1165957 -1.1056311 3.8630002
2.1081786 -0.94355732 3.8870001
2.1067061 -1.1853635 3.9380002
2.1072412 -1.1783794 3.9390001
2.0662363 -0.76635051 4.1960001
2.0730081 -0.76598525 4.1940002
2.0176663 -1.9048172 4.2080002
2.0555656 -0.96997607 4.2380004
2.0579906 -0.96327305 4.243
2.0471091 -0.98914111 4.2530003
2.0554583 -0.98150587 4.2540002
2.0554583 -0.97363812 4.2540002
2.0554583 -0.9657703 4.2540002
2.0440381 -0.99146682 4.263
2.0469148 -0.9691757 4.2690001
2.0588405 -0.9594788 4.2610002
2.0028205 -1.8960561 4.276
2.0428405 -0.98681259 4.2770004
2.0527816 -0.98588967 4.2729998
1.9679158 -1.9968253 4.4660001
1.9584264 -2.216727 4.579
1.9550678 -2.2819736 4.5910001
1.9491206 -2.2169387 4.5970001
1.9491206 -2.2084365 4.5970001
1.9461064 -2.2232082 4.6100001
1.9465286 -2.2151623 4.6110001
1.9393427 -2.0833209 4.7180004
1.9291847 -1.9553435 4.7145004
1.9293892 -1.9424698 4.7150002
1.9302076 -1.9345697 4.717
1.9420147 -2.073081 4.7245002
1.9262363 -2.1336432 4.7720003
1.9286582 -2.1274889 4.7780004
1.9258326 -1.8243569 4.7710004
1.9274472 -1.8170551 4.7750001
1.9153838 -2.384819 4.789
1.9226339 -2.1306057 4.7850003
1.9294655 -2.1195388 4.7800002
1.9298692 -1.8104959 4.7810001
1.9101095 -2.3937378 4.7980003
1.9161837 -2.3725235 4.7910004
1.9177836 -2.3656359 4.7950001
1.9246429 -2.1239731 4.7900004
1.9258484 -1.7707167 4.7930002
1.9282591 -1.7640575 4.7990003
1.9020281 -2.3947356 4.8000002
1.9020281 -2.3858578 4.8000002
1.9113039 -2.3863549 4.8010001
1.9055945 -2.2924945 4.809
1.9294646 -1.756279 4.802
1.907972 -2.3042603 4.8150001
1.9176736 -1.8508556 4.8170004
1.9241829 -1.706183 4.8110003
1.9257827 -1.6986961 4.8150001
1.9034051 -2.3095243 4.8260002
1.9224508 -2.1323352 4.829
1.9131233 -1.917588 4.8280001
1.9135195 -1.9001226 4.829
1.9289823 -1.6925983 4.8230004
1.9309821 -1.6854237 4.8280001
1.9151046 -2.1519787 4.8330002
1.9151046 -2.1430399 4.8330002
1.9162934 -2.135426 4.8360004
1.9236451 -2.0889759 4.8320003
1.9139158 -1.9094492 4.8300004
1.9260337 -1.653123 4.8380003
1.9145877 -2.12956 4.8430004
1.9284223 -1.6462142 4.8440003
1.9152373 -2.1262951 4.8560004
1.9152373 -2.0993516 4.8560004
1.9062561 -1.9466714 4.8560004
1.9074337 -1.9119271 4.8590002
1.9164205 -1.813073 4.8590002
1.9148428 -1.8026012 4.855
1.930811 -1.621343 4.8500004
1.930811 -1.612373 4.8500004
1.934394 -1.6063783 4.8590002
1.9246147 -1.587751 4.8570004
1.9261998 -1.5800681 4.8610001
1.9293698 -1.5736634 4.8690004
1.9117519 -1.7901564 4.8700004
1.9121444 -1.7634972 4.8710003
1.9129295 -1.7552086 4.8730001
1.9133221 -1.7465544 4.8740001
1.912537 -1.7368269 4.8720002
1.9129295 -1.7281708 4.8730001
1.9325398 -1.5672289 4.8770003
1.9231254 -1.5488713 4.8760004
1.9066519 -1.8840879 4.8800001
1.9088008 -1.8455501 4.8855
1.9101683 -1.815225 4.8890004
1.9337286 -1.5591674 4.8800001
1.9262806 -1.5423795 4.8840003
1.9266751 -1.5336604 4.8850002
1.9278582 -1.5255619 4.888
1.9294358 -1.5177625 4.8920002
1.9294358 -1.5087148 4.8920002
1.9310136 -1.5008932 4.8960004
1.9203881 -1.4906193 4.8920002
1.9215658 -1.48248 4.8950005
1.899437 -1.913053 4.9080005
1.93338 -1.4936664 4.9020004
1.9345632 -1.4855087 4.9050002
1.9247062 -1.4758348 4.9030004
1.90292 -2.1257231 4.9170003
1.9092921 -1.6777251 4.9100003
1.9309871 -1.4533578 4.9190001
1.9056292 -2.1378562 4.9240003
1.8957518 -1.9367164 4.9220004
1.9069836 -1.7247138 4.9275002
1.9067901 -1.701759 4.927
1.9060161 -1.6919594 4.9250002
1.9333426 -1.4460218 4.9250002
1.9341277 -1.4374965 4.927
1.9222802 -1.4263546 4.9200001
1.9254057 -1.4150014 4.9280005
1.9003737 -2.1148217 4.934
1.9003737 -1.8228074 4.934
1.9083382 -1.7122604 4.9310002
1.9094992 -1.6859258 4.934
1.9110472 -1.6142299 4.9380002
1.9114343 -1.5962874 4.9390001
1.9106603 -1.5865099 4.9370003
1.9102732 -1.5588012 4.9360003
1.9273593 -1.4027526 4.9330001
1.9201801 -1.376776 4.9380002
1.878312 -2.4228165 4.9480004
1.8867004 -2.4218373 4.9460001
1.8779323 -2.4131775 4.947
1.8867004 -2.4126897 4.9460001
1.9030699 -2.1452372 4.9410005
1.904418 -1.7946773 4.9445
1.903455 -1.7617813 4.9420004
1.9030699 -1.7522864 4.9410005
1.903455 -1.7435008 4.9420004
1.9118212 -1.6605663 4.9400001
1.9125953 -1.6520984 4.9420004
1.9118212 -1.6422933 4.9400001
1.9122082 -1.6334873 4.9410005
1.9118212 -1.6240202 4.9400001
1.9118212 -1.6057471 4.9400001
1.9118212 -1.5783376 4.9400001
1.9122082 -1.5695186 4.9410005
1.9328293 -1.3747087 4.9470005
1.9234854 -1.3654207 4.9465003
1.8723717 -2.3857255 4.9565001
1.8996811 -2.1517498 4.9560003
1.9065363 -1.7371681 4.9500003
1.9078844 -1.7246537 4.9535003
1.9076917 -1.7107393 4.9530001
1.9073067 -1.7012351 4.9520001
1.9100027 -1.6669532 4.9590001
1.9100027 -1.6577815 4.9590001
1.9100027 -1.6486098 4.9590001
1.908462 -1.6381158 4.9550004
1.9069215 -1.6276364 4.9510002
1.9065363 -1.6181526 4.9500003
1.907114 -1.6049058 4.9514999
1.908462 -1.5922943 4.9550004
1.908462 -1.58313 4.9550004
1.9088472 -1.5742834 4.9560003
1.9076917 -1.5641699 4.9530001
1.9343921 -1.3620868 4.9510002
1.9252353 -1.3529298 4.9510002
1.9347829 -1.3532032 4.9520001
1.9164654 -1.3440444 4.9520001
1.9267907 -1.3448586 4.9550004
1.928346 -1.3367726 4.9590001
1.9172393 -1.3262624 4.9540005
1.9191744 -1.3184292 4.9590001
1.9287349 -1.3278687 4.96
1.9218835 -1.3111057 4.9660001
1.9302903 -1.3197585 4.9640002
1.8977628 -2.1507978 4.9750004
1.9234315 -1.3029697 4.9700003
1.9000515 -2.0336308 4.9810004
1.9000515 -2.0244186 4.9810004
1.9008144 -2.0160153 4.9830003
1.9109888 -1.6251477 4.9855003
1.9111804 -1.6114779 4.9860001
1.9123303 -1.6032202 4.9890003
1.9123303 -1.5109485 4.9890003
1.9107971 -1.4728581 4.9850001
1.8857821 -2.2043109 4.9920001
1.8872931 -2.1968369 4.9960003
1.8976721 -2.0502255 4.9990001
1.8976721 -2.013243 4.9990001
1.9134803 -1.5949516 4.9920001
1.9142469 -1.5863541 4.9940004
1.9142469 -1.5771178 4.9940004
1.9138635 -1.5675673 4.993
1.9134803 -1.5580207 4.9920001
1.9127136 -1.5481675 4.9900002
1.9129052 -1.5344772 4.9905005
1.9127136 -1.5204804 4.9900002
1.9130969 -1.3084753 4.9910002
1.9250239 -1.2825789 4.9980001
1.9146302 -1.2725708 4.9950004
1.9254091 -1.27359 4.9990001
1.8888042 -2.1616058 5
1.8910707 -2.1549411 5.006
1.8956974 -2.0253205 5.0060005
1.9072992 -1.4495474 5
1.9176966 -1.283862 5.0030003
1.9257942 -1.2645972 5
1.9257942 -1.2553496 5
1.9151738 -1.2111676 5.0085001
1.9151738 -1.2019043 5.0085001
1.8762941 -2.4653902 5.0160003
1.8833158 -2.193727 5.0100002
1.886699 -2.1791024 5.0190001
1.8863231 -2.1693876 5.0180001
1.893715 -2.0466957 5.013
1.8933374 -2.0370178 5.0120001
1.9126396 -1.3145051 5.0140004
1.9130211 -1.2869415 5.0150003
1.9234463 -1.2227457 5.0180001
1.9130211 -1.194189 5.0150003
1.9222964 -1.194189 5.0150003
1.8777905 -2.1981058 5.0200005
1.8874508 -2.1892571 5.0210004
1.8870749 -2.1609676 5.0200005
1.8874508 -2.1521118 5.0210004
1.8893304 -2.0798903 5.026
1.8883905 -2.0649185 5.0235004
1.8904581 -2.0532281 5.0290003
1.8904581 -2.043927 5.0290003
1.8967372 -1.9756712 5.0210004
1.898626 -1.9404562 5.026
1.9179801 -1.243781 5.0280004
1.9249796 -1.2422968 5.0220003
1.9183615 -1.2347273 5.0290003
1.9149284 -1.2232331 5.0200005
1.8752058 -2.1966696 5.0380001
1.8819051 -2.1936173 5.0310001
1.8834013 -2.1860492 5.0350003
1.8830273 -2.1763046 5.0340004
1.9105788 -1.2170923 5.0330005
1.918743 -1.1884578 5.0300002
1.9124769 -1.143759 5.0380001
1.9221761 -1.1439861 5.039
1.9214132 -1.1342161 5.0370002
1.9210317 -1.1246768 5.0360003
1.9214132 -1.1155841 5.0370002
1.9214132 -1.1062682 5.0370002
1.9202689 -1.0962989 5.0340004
1.9148526 -1.0865567 5.0320001
1.9202689 -1.0776782 5.0340004
1.8759501 -2.18822 5.0400004
1.8865809 -2.054482 5.0434999
1.8871419 -2.0410991 5.0450001
1.8945931 -1.9831473 5.0400004
1.9151342 -1.2106633 5.0450001
1.9139954 -1.2006183 5.0420003
1.9147545 -1.1917657 5.0440001
1.9166526 -1.1649326 5.0490003
1.9139954 -1.1539923 5.0420003
1.9229391 -1.1537634 5.0410004
1.9248464 -0.88426274 5.046
1.9233205 -0.87423658 5.0420003
1.871073 -2.2121174 5.052
1.8910697 -1.993919 5.0555
1.8916306 -1.9804835 5.0570002
1.9170322 -1.1838433 5.0500002
1.9174118 -1.1747359 5.0510001
1.9099588 -1.1478455 5.0560002
1.9170322 -1.0624235 5.0500002
1.9185506 -1.0539176 5.0540004
1.9204487 -1.0456036 5.059
1.9204487 -1.036247 5.059
1.9204487 -1.0268904 5.059
1.9189303 -0.96998304 5.0550003
1.9263722 -0.89430368 5.0500002
1.9129809 -1.1590276 5.0640001
1.9139253 -1.0049851 5.0665002
1.9144919 -0.99122411 5.0680003
1.9215876 -0.98068839 5.0620003
1.8698366 -2.2217507 5.0740004
1.9167585 -1.1707007 5.0740004
1.9062464 -1.1512508 5.0710001
1.8644855 -2.2265673 5.085
1.9100055 -1.1629184 5.0810003
1.9133887 -1.1743923 5.0900002
1.9065932 -1.1477267 5.0970001
1.9039748 -1.1179085 5.0900002
1.9050969 -1.1091479 5.0930004
1.8634715 -2.2366383 5.1080003
1.9079604 -1.0784124 5.1260004
1.9060993 -1.0678892 5.1210003
1.8620095 -2.1893437 5.1300001
1.9021835 -0.9950248 5.1360002
1.9018131 -0.98533392 5.1350002
1.8985807 -1.3602128 5.1520004
1.8982186 -1.002968 5.177
1.896752 -0.99262553 5.1730003
1.9004186 -1.0137163 5.1830001
1.8930215 -0.98609865 5.1890001
1.8938601 -0.99866998 5.2045002
1.8267455 -2.5362082 5.2190003
1.8249954 -2.5144918 5.2140002
1.8943135 -1.0207574 5.2190003
1.8917726 -1.0097487 5.2120004
1.8295457 -2.5304284 5.2270002
1.8879108 -1.0031793 5.2280002
1.8918831 -1.0246691 5.2390003
1.8889942 -1.0134296 5.2310004
1.8847085 -1.0066333 5.2460003
1.8872234 -1.0176919 5.2530003
1.8508247 -1.7875901 5.2600002
1.8803673 -1.0192417 5.2610002
1.8846562 -1.031319 5.2730002
1.8784595 -1.0235039 5.2830005
1.8677143 -1.3719479 5.3080001
1.8750554 -1.3701385 5.3010001
1.8663069 -1.3611042 5.3040004
1.8750554 -1.3603344 5.3010001
1.8771777 -1.008523 5.3070002
1.8701774 -1.3835872 5.3150001
1.8694737 -1.3535874 5.3130002
1.8749146 -1.1967027 5.3145003
1.8793001 -1.0293159 5.3130002
1.8645475 -1.3768587 5.3270001
1.8634975 -1.3662366 5.3240004
1.8736961 -1.2187642 5.3250003
1.8726405 -1.2082345 5.322
1.8641975 -1.1992922 5.3260002
1.874048 -1.041685 5.3260002
1.8377464 -1.7933445 5.335
1.8380909 -1.7838117 5.3360004
1.8391242 -1.77494 5.3390002
1.8669976 -1.3885332 5.3340001
1.8659476 -1.3581733 5.3310003
1.8662976 -1.1907817 5.3320003
1.8754554 -1.0326095 5.3300004
1.876511 -1.0134639 5.3330002
1.8493451 -1.6567564 5.3400002
1.8496914 -1.6471884 5.3410001
1.8616586 -1.3820281 5.3470001
1.8616586 -1.3721387 5.3470001
1.8697978 -1.212775 5.3420005
1.8620068 -1.1943549 5.348
1.8718979 -1.055879 5.348
1.8722479 -1.0461835 5.3490005
1.8694477 -0.99522781 5.3410001
1.8343891 -1.7997313 5.3540001
1.8337039 -1.7891604 5.3520002
1.8343891 -1.7799268 5.3540001
1.8637476 -1.3934792 5.3530002
1.8545399 -1.3840958 5.355
1.8545399 -1.3741918 5.355
1.8559251 -1.3653067 5.3590002
1.8633994 -1.3635234 5.3520002
1.8658366 -1.3553952 5.3590002
1.8627031 -1.2046964 5.3500004
1.8647921 -1.1862357 5.3560004
1.8593884 -1.4075743 5.3690004
1.8566178 -1.3955618 5.3610001
1.8583493 -1.3571657 5.3660002
1.8586956 -1.2085245 5.3670001
1.8569641 -1.1974815 5.3620005
1.8593884 -1.1891148 5.3690004
1.8686219 -1.1092616 5.3670001
1.8686219 -1.0695565 5.3670001
1.8679256 -1.0592353 5.3650002
1.8689702 -1.010187 5.368
1.8299391 -1.7951778 5.3700004
1.8299391 -1.7852459 5.3700004
1.8323245 -1.7776283 5.3770003
1.8618126 -1.4392383 5.3760004
1.8522141 -1.3848088 5.3770003
1.860081 -1.3484966 5.3710003
1.8597347 -1.3383137 5.3700004
1.8604273 -1.3288766 5.3720002
1.8614663 -1.3196777 5.3750005
1.8614663 -1.100974 5.3750005
1.8625052 -1.061802 5.3780003
1.8660858 -1.0510731 5.3740005
1.8450103 -1.6209199 5.3850002
1.8549699 -1.5014051 5.3850002
1.8556588 -1.4919995 5.3870001
1.8542809 -1.4112446 5.3830004
1.8532475 -1.4005078 5.3800001
1.8532475 -1.3706568 5.3800001
1.8539364 -1.3612124 5.3820004
1.8549699 -1.3520116 5.3850002
1.8560033 -1.3427997 5.3880005
1.8560033 -1.2032881 5.3880005
1.8560033 -1.1933229 5.3880005
1.8631978 -1.1119485 5.3800001
1.8631978 -1.0920478 5.3800001
1.8638905 -1.0824999 5.3820004
1.8631978 -1.0721473 5.3800001
1.8663146 -1.0440398 5.3890004
1.8663146 -1.0241059 5.3890004
1.8267858 -1.7719573 5.3900003
1.8278025 -1.7629691 5.3930001
1.8284804 -1.7536448 5.3950005
1.8291582 -1.7443132 5.3970003
1.8584145 -1.4443249 5.3950005
1.8494643 -1.4151772 5.3980002
1.858759 -1.3348135 5.3960004
1.859448 -1.185554 5.3980002
1.8597925 -1.0959046 5.3990002
1.8597925 -1.085919 5.3990002
1.8232213 -1.7982115 5.4090004
1.8228842 -1.7878768 5.4080005
1.8305138 -1.7356168 5.401
1.8322085 -1.7272252 5.4060001
1.8411846 -1.6263381 5.4030004
1.8522053 -1.4972618 5.4060001
1.8522053 -1.4072762 5.4060001
1.8528906 -1.3977946 5.4080005
1.8525479 -1.3875359 5.4070001
1.8522053 -1.3772808 5.4060001
1.8525479 -1.3675354 5.4070001
1.8532332 -1.3580372 5.4090004
1.8608259 -1.1065044 5.4020004
1.8528906 -1.0877292 5.4080005
1.8615148 -1.07693 5.4040003
1.8622037 -1.0673302 5.4060001
1.8611703 -1.0567451 5.4030004
1.8604814 -1.0463647 5.401
1.8611703 -1.0367593 5.4030004
1.8235583 -1.8085496 5.4100003
1.8238955 -1.778861 5.4110003
1.8250751 -1.7649891 5.4145002
1.8259178 -1.7507772 5.4170003
1.826255 -1.7410798 5.4180002
1.8355978 -1.6703188 5.4160004
1.8355978 -1.6603019 5.4160004
1.8352587 -1.624939 5.415
1.8461258 -1.4252979 5.4175005
1.8546036 -1.3490301 5.4130001
1.8566594 -1.0999641 5.4190001
1.8552889 -1.059092 5.4150004
1.8546036 -1.0486895 5.4130001
1.8185809 -1.8436648 5.4250002
1.8272662 -1.7320178 5.4210005
1.8286145 -1.7232622 5.4250002
1.8379701 -1.6122985 5.4230003
1.8576872 -1.2008531 5.4220004
1.8587151 -1.1112156 5.4250002
1.823274 -1.7578876 5.4390001
1.8226036 -1.7471855 5.4370003
1.823274 -1.7377688 5.4390001
1.8319851 -1.6359704 5.4350004
1.8433928 -1.5265205 5.4390001
1.8423761 -1.5156245 5.4360003
1.8420372 -1.5052937 5.4350004
1.842715 -1.4957919 5.4370003
1.8433928 -1.4862827 5.4390001
1.8406816 -1.4238287 5.4310002
1.8520893 -1.4148253 5.4350004
1.85243 -1.1134688 5.4360003
1.8249501 -1.7292975 5.4440002
1.8340076 -1.6277132 5.4410005
1.8350189 -1.618542 5.4440002
1.8454264 -1.4778517 5.4450002
1.8467821 -1.4688594 5.4490004
1.8353559 -1.4375696 5.4450002
1.835693 -1.4277612 5.4460001
1.8440708 -1.4163872 5.4410005
1.7892649 -2.5514059 5.4580002
1.8182151 -1.7728229 5.4540005
1.8185486 -1.7327918 5.4550004
1.819882 -1.7239659 5.4590001
1.8383895 -1.5609919 5.4540005
1.8390636 -1.5514735 5.4560003
1.8390636 -1.5413826 5.4560003
1.8383895 -1.5307304 5.4540005
1.8373783 -1.5198067 5.4510002
1.8370413 -1.5094482 5.4500003
1.8370413 -1.4993684 5.4500003
1.838558 -1.485471 5.4545002
1.8397378 -1.4208126 5.4580002
1.8488157 -1.4048963 5.4549999
1.8484768 -1.3592483 5.4540005
1.8491546 -1.3446085 5.4560003
1.8491546 -1.2790196 5.4560003
1.8498324 -1.2693938 5.4580002
1.8333306 -1.5652851 5.4690003
1.8333306 -1.5450553 5.4690003
1.8313193 -1.5332563 5.4630003
1.8316545 -1.4830086 5.4640002
1.8316545 -1.4729029 5.4640002
1.8410861 -1.4723638 5.4620004
1.8333306 -1.3225268 5.4690003
1.8333306 -1.3124119 5.4690003
1.8140954 -1.7685533 5.4720001
1.8154215 -1.7445235 5.4759998
1.8245492 -1.6474085 5.473
1.8258828 -1.6384828 5.4770002
1.8262161 -1.6286504 5.4780002
1.8265495 -1.5782806 5.4790001
1.8340012 -1.5759761 5.4710002
1.8262161 -1.567861 5.4780002
1.8258828 -1.557445 5.4770002
1.8340012 -1.5557389 5.4710002
1.8248826 -1.5464678 5.4740005
1.8340012 -1.4241967 5.4710002
1.8461422 -1.3447208 5.4770002
1.8451309 -1.3136117 5.4740005
1.8360125 -1.304202 5.4770002
1.8461422 -1.304202 5.4770002
1.8464793 -1.2943085 5.4780002
1.8464793 -1.2841769 5.4780002
1.8170791 -1.7309135 5.4810004
1.8280497 -1.6150725 5.4835005
1.8295498 -1.4184721 5.4880004
1.8373533 -1.3355658 5.4810004
1.8122168 -1.7766333 5.4970002
1.8105685 -1.7648598 5.4920001
1.8115574 -1.7556609 5.4950004
1.822715 -1.5939224 5.4980001
1.822052 -1.5831777 5.4960003
1.821389 -1.5724404 5.4940004
1.8200629 -1.5611417 5.4900002
1.8413761 -1.4197644 5.493
1.8315501 -1.4098617 5.4940004
1.8325502 -1.3496313 5.4970002
1.8427169 -1.3496313 5.4970002
1.8325502 -1.2987977 5.4970002
1.8403703 -1.2971438 5.4900002
1.8420465 -1.14588 5.4950004
1.8132058 -1.747086 5.5000005
1.8135355 -1.7372296 5.5010004
1.8240411 -1.6357858 5.5020003
1.835884 -1.3622717 5.5070004
1.8362173 -1.2097132 5.5080004
1.8355505 -1.1481738 5.506
1.8086065 -1.7320788 5.5170002
1.8188102 -1.5994306 5.5170002
1.8165026 -1.5872105 5.5100002
1.8375508 -1.373703 5.5120001
1.8293455 -1.3547872 5.5180001
1.8266933 -1.3426323 5.5100002
1.8286824 -1.3134887 5.5160003
1.8385509 -1.2928506 5.5150003
1.8392177 -1.242301 5.5170002
1.8375508 -1.2309806 5.5120001
1.8378842 -1.2210076 5.5130005
1.8372175 -1.2001795 5.5110002
1.8388842 -1.1910665 5.5160003
1.8378842 -1.1598299 5.5130005
1.8105735 -1.7237477 5.5230002
1.8115569 -1.7042433 5.5260005
1.8115569 -1.6940229 5.5260005
1.8300085 -1.3654876 5.5200005
1.8329922 -1.2143254 5.5290003
1.8045963 -1.7380439 5.5360003
1.8052483 -1.7284292 5.5380001
1.8141795 -1.6657699 5.5340004
1.815163 -1.6564323 5.5370002
1.8141795 -1.6452997 5.5340004
1.8141795 -1.6350645 5.5340004
1.823096 -1.3475057 5.5300002
1.8247443 -1.3384871 5.5350003
1.8343183 -1.3073035 5.5330005
1.8339868 -1.2047528 5.5320001
1.8363074 -1.1960329 5.539
1.8363074 -1.1652997 5.539
1.8356444 -1.1546383 5.5370002
1.7870191 -2.2331331 5.5450001
1.8065522 -1.7194277 5.5420003
1.8075302 -1.7049733 5.5450001
1.8267224 -1.32969 5.5410004
1.8366389 -1.2269876 5.5400004
1.7995435 -1.7944093 5.552
1.7998676 -1.774192 5.5530005
1.8011642 -1.7651923 5.5570002
1.8014883 -1.7552303 5.5580001
1.8014883 -1.7449508 5.5580001
1.8018124 -1.7349834 5.5590005
1.80916 -1.6808507 5.5500002
1.8101379 -1.6714891 5.5530005
1.8107898 -1.6618171 5.5550003
1.8104639 -1.6512458 5.5540004
1.8111159 -1.6415646 5.5560002
1.8194247 -1.3318497 5.5500002
1.8220474 -1.3234899 5.5580001
1.8306785 -1.3222994 5.5530005
1.8326565 -1.1592259 5.5590005
1.8031089 -1.7259431 5.5630002
1.8040813 -1.7165794 5.5660005
1.8243421 -1.1707696 5.5650001
1.8336456 -1.1701385 5.5620003
1.8066742 -1.6881193 5.5740004
1.806026 -1.6772082 5.572
1.8066742 -1.6675011 5.5740004
1.8076466 -1.6580839 5.5770001
1.8069984 -1.6162454 5.5750003
1.8179613 -1.338329 5.5770001
1.8279482 -1.3174634 5.5760002
1.8279482 -1.1833966 5.5760002
1.7999102 -1.6914507 5.585
1.7999102 -1.6707917 5.585
1.800877 -1.6613543 5.5880003
1.8050712 -1.6243055 5.585
1.8212211 -1.3252271 5.5869999
1.8208951 -1.3094947 5.5860004
1.8212211 -1.299396 5.5870004
1.8299152 -1.2362896 5.5820003
1.8292595 -1.2255265 5.5800004
1.8295873 -1.2154239 5.5810003
1.8295873 -1.205102 5.5810003
1.8295873 -1.1947799 5.5810003
1.7934258 -1.7778983 5.5970001
1.8037775 -1.632975 5.5970001
1.8144532 -1.3123078 5.598
1.8231769 -1.1870046 5.5930004
1.7943871 -1.768494 5.6000004
1.795028 -1.738043 5.6020002
1.7956688 -1.7282988 5.6040001
1.7972709 -1.6883454 5.6090002
1.8157498 -1.3443283 5.6020002
1.8160739 -1.3031173 5.6030002
1.8264366 -1.2305779 5.6030002
1.8176945 -1.169444 5.6080003
1.7784235 -2.1782444 5.6150002
1.7881714 -1.8245058 5.6130004
1.7975913 -1.6990222 5.6100001
1.7985526 -1.6791682 5.6130004
1.7991935 -1.6693815 5.6150002
1.7988731 -1.6275518 5.6140003
1.8105453 -1.3481679 5.618
1.8212599 -1.3380154 5.6190004
1.8196393 -1.3264418 5.6140003
1.8199635 -1.2955232 5.6150002
1.8202876 -1.1918858 5.6160002
1.7607839 -2.723103 5.6250005
1.761723 -2.4122856 5.6280003
1.7913572 -1.7653577 5.6230001
1.79072 -1.7543339 5.6210003
1.7919943 -1.7451788 5.6250005
1.79295 -1.7357005 5.6280003
1.8017569 -1.6405607 5.6230001
1.8118343 -1.317934 5.6220002
1.8124789 -1.3080013 5.6240001
1.813768 -1.2464776 5.6280003
1.8225564 -1.2453703 5.6230001
1.8219081 -1.2345312 5.6210003
1.8131235 -1.1940081 5.6260004
1.7651664 -2.4065709 5.6390004
1.7623491 -2.3923173 5.6300001
1.7954986 -1.6964726 5.6360002
1.7948616 -1.63335 5.6340003
1.8160239 -1.3418255 5.6350002
1.8150572 -1.3306947 5.6320004
1.8153794 -1.2996762 5.6330004
1.8150572 -1.25778 5.6320004
1.8144126 -1.2365079 5.6300001
1.8153794 -1.2267485 5.6330004
1.8157017 -1.2165462 5.6340003
1.8153794 -1.205912 5.6330004
1.7885588 -1.7102278 5.6470003
1.7885588 -1.6997837 5.6470003
1.7980473 -1.6466877 5.6440001
1.807845 -1.3330574 5.6420002
1.8091267 -1.3235602 5.6460004
1.8189244 -1.2917756 5.6440001
1.8182799 -1.2704481 5.6420002
1.8094472 -1.2402415 5.6470003
1.7898258 -1.6905361 5.6510005
1.7904593 -1.6806792 5.6530004
1.7907759 -1.6496053 5.6540003
1.812331 -1.3154436 5.6560001
1.812331 -1.2736006 5.6560001
1.8104085 -1.2617998 5.6500001
1.8107288 -1.2515715 5.6510005
1.7834677 -1.7677543 5.664
1.8047373 -1.3175368 5.6650004
1.8148944 -1.3068287 5.664
1.8139331 -1.2956665 5.6610003
1.8142536 -1.2854235 5.6620002
1.7863015 -1.7181021 5.6730003
1.7866164 -1.7079109 5.6740003
1.7875611 -1.6983142 5.677
1.7875611 -1.6878146 5.677
1.7878759 -1.6566075 5.6780005
1.8091974 -1.2682763 5.6790004
1.8088789 -1.2575516 5.6780005
1.8085603 -1.2468303 5.677
1.7792526 -1.7634838 5.6840005
1.8015447 -1.3123661 5.6880002
1.8101531 -1.2794552 5.6820002
1.782383 -1.724462 5.6940002
1.783635 -1.715135 5.6980004
1.7839481 -1.7048957 5.6990004
1.7839481 -1.6943554 5.6990004
1.8037617 -1.2823825 5.6950002
1.8024949 -1.2709563 5.6910005
1.8024949 -1.2604307 5.6910005
1.7532495 -2.4967327 5.7020001
1.7526346 -2.4536884 5.7000003
1.7532495 -2.4440036 5.7020001
1.7858262 -1.664485 5.7050004
1.806929 -1.2951857 5.7050004
1.7973223 -1.2641958 5.7080002
1.7460656 -2.5438142 5.7130003
1.74576 -2.5328045 5.7120004
1.7478994 -2.5147538 5.7190003
1.7475938 -2.5037386 5.7180004
1.7560169 -2.4901111 5.7110004
1.7566319 -2.4698508 5.7130003
1.779009 -1.6785597 5.7170005
1.7793201 -1.6682779 5.7180004
1.7998413 -1.2871112 5.7160001
1.7995265 -1.276316 5.7150002
1.7391448 -2.538569 5.7250004
1.7488163 -2.5266559 5.7220001
1.7509557 -2.4979596 5.7290001
1.7590916 -2.4838903 5.7210002
1.7491219 -2.474174 5.723
1.7497332 -2.4644501 5.7250004
1.75065 -2.4445536 5.7280002
1.7917738 -1.3524319 5.7240005
1.7418787 -2.5319548 5.7340002
1.7421826 -2.5217893 5.7350001
1.7418787 -2.5107446 5.7340002
1.7424864 -2.4904029 5.7360001
1.7518725 -2.4886663 5.7320004
1.7418787 -2.4736233 5.7340002
1.7534008 -2.4590054 5.7370005
1.7355008 -2.5381367 5.7480001
1.7443091 -2.5036278 5.7420001
1.7761686 -1.6859 5.7420001
1.7767873 -1.6758636 5.7440004
1.7361046 -2.5496545 5.7500005
1.738822 -2.5110402 5.7590003
1.7476506 -2.4658632 5.7530003
1.7476506 -2.4552231 5.7530003
1.7701609 -1.7541896 5.7570004
1.7707759 -1.7441477 5.7590003
1.7920785 -1.3500502 5.7590003
1.7400298 -2.5341015 5.7630005
1.7409356 -2.5247564 5.7660003
1.7400298 -2.480808 5.7630005
1.7923896 -1.3396314 5.7600002
1.7936343 -1.3299012 5.7640004
1.7338723 -2.604816 5.7780004
1.7439549 -2.3154807 5.7760005
1.7359729 -2.5116773 5.7850003
1.7365731 -2.5018425 5.7870002
1.7457664 -2.4782932 5.7820001
1.7451626 -2.3384645 5.7800002
1.7451626 -2.3277743 5.7800002
1.7781554 -1.4947201 5.7830005
1.7778479 -1.4837679 5.7820001
1.7386736 -2.5370169 5.7940001
1.7380735 -2.5254288 5.7920003
1.7383735 -2.4937222 5.7930002
1.7490877 -2.4722939 5.7930002
1.7318347 -2.5427091 5.8070002
1.7428747 -2.4894373 5.8080001
1.7431748 -2.4683785 5.8090005
1.7747948 -1.8553452 5.8070002
1.7751005 -1.8449229 5.8080001
1.7628397 -1.6930773 5.8030005
1.7342205 -2.5354571 5.8150001
1.7351152 -2.5260048 5.8180003
1.7333258 -2.5126505 5.8120003
1.7330276 -2.5014708 5.8110003
1.7443752 -2.4808295 5.8130002
1.733624 -2.4700782 5.8130002
1.7267258 -2.5510287 5.8260002
1.7360098 -2.4950094 5.8210001
1.727615 -2.4876578 5.8290005
1.7369046 -2.4855239 5.8240004
1.7290969 -2.5437417 5.8340001
1.7329499 -2.571038 5.8470001
1.7326535 -2.5057251 5.8460002
1.7347282 -2.5412009 5.8530002
1.7353209 -2.5312405 5.8550005
1.7350246 -2.5199811 5.8540001
1.7244921 -2.4987538 5.8550005
1.7230195 -2.4858005 5.8500004
1.7300882 -2.5177264 5.8740001
1.7198097 -2.4968483 5.8760004
1.7623801 -1.8872945 5.8730001
1.7236145 -2.5241559 5.8890004
1.7227365 -2.5119839 5.8860002
1.7144678 -2.494019 5.8950005
1.7577808 -1.9049438 5.8940001
1.7271267 -2.5402131 5.9010005
1.7185395 -2.5217996 5.9090004
1.717667 -2.5095961 5.9060001
1.7208662 -2.5361574 5.9170003
1.7102116 -2.5256405 5.9180002
1.7105006 -2.4932258 5.9190001
1.753993 -1.5733947 5.9180002
1.7125235 -2.5180945 5.9260001
1.7148354 -2.697093 5.9340005
1.7151244 -2.6865709 5.9350004
1.7154133 -2.544301 5.9360003
1.7136794 -2.5088267 5.9300003
1.7602171 -1.4911044 5.9390001
1.7061576 -2.5468729 5.9420004
1.7061576 -2.5139036 5.9420004
1.7124745 -2.7217591 5.9640002
1.7005882 -2.5439918 5.9610004
1.7008735 -2.5333917 5.9620004
1.7237939 -2.4133115 5.9650002
1.7235049 -2.4018764 5.9640002
1.703441 -2.7249537 5.9710002
1.7476146 -1.5212253 5.9710002
1.7080057 -2.6658175 5.9870005
1.7085762 -2.6445549 5.9890003
1.7193657 -2.4226167 5.9880004
1.6889571 -2.9258618 5.9980001
1.6872677 -2.8786061 5.9920001
1.6872677 -2.8675239 5.9920001
1.6983498 -2.8675239 5.9920001
1.6886755 -2.8588252 5.9970002
1.700334 -2.682256 5.9990001
1.709432 -2.6569617 5.9920001
1.7097174 -2.635237 5.9930005
1.7000505 -2.5486891 5.9980001
1.6903651 -2.950506 6.0030003
1.6898019 -2.9384241 6.0010004
1.6795423 -2.8843708 6.0040002
1.7009008 -2.6942489 6.0010004
1.7006173 -2.6716061 6.0000005
1.702318 -2.6631696 6.0060005
1.7028848 -2.6529446 6.0080004
1.7122849 -2.5725901 6.0020003
1.7017511 -2.5623429 6.0040002
1.7031683 -2.4977949 6.0090003
1.7040186 -2.7103069 6.0120001
1.6928993 -2.6991878 6.0120001
1.7040186 -2.6435916 6.0120001
1.6948705 -2.5464802 6.0190001
1.675385 -2.9521344 6.0290003
1.6962785 -2.7268581 6.0240002
1.6968416 -2.7166183 6.0260005
1.6954336 -2.6920924 6.0210004
1.7062861 -2.5803053 6.0200005
1.6976863 -2.5172591 6.0290003
1.6773303 -2.9443984 6.0360003
1.6890533 -2.7331953 6.0380001
1.6988127 -2.6862998 6.0330005
1.699939 -2.5652611 6.0370002
1.6882141 -2.5532494 6.0350003
1.7094039 -2.4957855 6.0310001
1.6792755 -2.9701662 6.0430002
1.691571 -2.7260854 6.0470004
1.6918507 -2.7153504 6.0480003
1.7007838 -2.6782458 6.0400004
1.7016286 -2.6683993 6.0430002
1.7010654 -2.6563435 6.0410004
1.7019101 -2.6464841 6.0440001
1.7007838 -2.5888777 6.0400004
1.7007838 -2.5777068 6.0400004
1.691571 -2.5695102 6.0470004
1.690452 -2.5231044 6.0430002
1.6834438 -2.9103129 6.0580001
1.6924101 -2.7050588 6.0500002
1.6943684 -2.6969862 6.0570002
1.6935291 -2.5948784 6.0540004
1.6938089 -2.5841084 6.0550003
1.7052891 -2.5173316 6.0560002
1.7055708 -2.5065448 6.0570002
1.706134 -2.4513419 6.0590005
1.7052891 -2.4389277 6.0560002
1.6747239 -2.9819622 6.0670004
1.6749998 -2.971231 6.0680003
1.6856669 -2.9253752 6.0660005
1.6856669 -2.9029372 6.0660005
1.6738957 -2.8346877 6.0640001
1.6862227 -2.8365576 6.0680003
1.685389 -2.8239379 6.0650001
1.6963265 -2.6888878 6.0640001
1.6963265 -2.6776724 6.0640001
1.6952076 -2.6646981 6.0600004
1.6966063 -2.6556795 6.0650001
1.6954873 -2.6090887 6.0610003
1.6974454 -2.5223198 6.0680003
1.7072603 -2.4641738 6.0630002
1.7078235 -2.431335 6.0650001
1.7089498 -2.3992646 6.0690002
1.6667932 -2.9878602 6.0790005
1.6662447 -2.9756379 6.0770001
1.67638 -2.8276629 6.0730004
1.6870563 -2.8155034 6.0710001
1.6988441 -2.6254864 6.0730004
1.6890016 -2.5826828 6.0780001
1.6881679 -2.5701723 6.0750003
1.6890016 -2.5602002 6.0780001
1.6881679 -2.5477009 6.0750003
1.6884458 -2.5368826 6.0760002
1.7002428 -2.5152352 6.0780001
1.6799686 -3.0025568 6.0860004
1.6783123 -2.9658618 6.0800004
1.6794165 -2.8215322 6.0840001
1.6912247 -2.7436674 6.0860004
1.6917804 -2.733309 6.0880003
1.6912247 -2.7211552 6.0860004
1.6912247 -2.7098989 6.0860004
1.6912247 -2.6198504 6.0860004
1.6903909 -2.6073086 6.0830002
1.6909467 -2.5969117 6.0850005
1.6906688 -2.5289705 6.0840001
1.7024807 -2.4510095 6.0860004
1.7019212 -2.4389515 6.0840001
1.7030402 -2.4067757 6.0880003
1.7145815 -2.1932003 6.0890002
1.6607245 -3.0197554 6.0980005
1.6609968 -2.9864104 6.0990005
1.6604521 -2.9741545 6.0970001
1.6700834 -2.9712276 6.0910001
1.6717286 -2.9628782 6.0970001
1.6714544 -2.9511175 6.0960002
1.6711802 -2.9393609 6.0950003
1.6711802 -2.9280879 6.0950003
1.6706318 -2.825706 6.0930004
1.6926141 -2.70086 6.0910001
1.6931698 -2.6792088 6.0930004
1.6937256 -2.6349974 6.0950003
1.6926141 -2.5206149 6.0910001
1.7038794 -2.4304924 6.0910001
1.6620862 -3.033519 6.1030002
1.6747446 -3.0247076 6.1080003
1.6747446 -3.0134108 6.1080003
1.6615415 -3.0099573 6.1010003
1.6618139 -2.9991648 6.1020002
1.6615415 -2.9648221 6.1010003
1.6623585 -2.9549904 6.1040001
1.6618139 -2.9427366 6.1020002
1.6612692 -2.93049 6.1000004
1.6739221 -2.9216008 6.1050005
1.6747446 -2.8213658 6.1080003
1.6846613 -2.8190563 6.1030002
1.6857654 -2.7418394 6.1070004
1.6843852 -2.7283089 6.1020002
1.6843852 -2.7170234 6.1020002
1.6854893 -2.7075114 6.1060004
1.6854893 -2.6171668 6.1060004
1.6852133 -2.6054471 6.1050005
1.6747446 -2.5954306 6.1080003
1.6854893 -2.5945807 6.1060004
1.6863174 -2.5845568 6.1090002
1.6857654 -2.5498259 6.1070004
1.6838331 -2.5356214 6.1000004
1.6843852 -2.525167 6.1020002
1.6863174 -2.5167651 6.1090002
1.6951151 -2.5130575 6.1000004
1.6970602 -2.5046463 6.1070004
1.6973382 -2.4372759 6.1080003
1.6639925 -2.9239938 6.1100001
1.6664436 -2.9169836 6.1190004
1.676664 -2.9150767 6.1150002
1.6758415 -2.9023426 6.1120005
1.6645372 -2.8458219 6.1120005
1.6645372 -2.8345175 6.1120005
1.6772124 -2.8142097 6.1170001
1.6777607 -2.7585442 6.1190004
1.6772124 -2.7463291 6.1170001
1.6761156 -2.7332273 6.1130004
1.6763898 -2.7223666 6.1140003
1.6777607 -2.6906416 6.1190004
1.6865935 -2.6979845 6.1100001
1.6871456 -2.6875634 6.1120005
1.6871456 -2.6762593 6.1120005
1.6885258 -2.6671352 6.1170001
1.6876976 -2.6319036 6.1140003
1.6755673 -2.6193099 6.1110001
1.6769382 -2.5875185 6.1160002
1.6865935 -2.5736794 6.1100001
1.6874216 -2.5636373 6.1130004
1.6763898 -2.5414407 6.1140003
1.6763898 -2.530133 6.1140003
1.697894 -2.4493744 6.1100001
1.6984497 -2.427568 6.1120005
1.669167 -2.9104152 6.1290002
1.6672606 -2.8618004 6.1220002
1.666716 -2.8269088 6.1200004
1.6675329 -2.8169699 6.1230001
1.6783091 -2.804729 6.1210003
1.6799543 -2.7961464 6.1270003
1.6802285 -2.7739353 6.1280003
1.6780349 -2.7137191 6.1200004
1.6780349 -2.7024002 6.1200004
1.6787204 -2.6751928 6.1225004
1.6799543 -2.6374998 6.1270003
1.67968 -2.5804191 6.1260004
1.6805027 -2.5703471 6.1290002
1.6788574 -2.5565064 6.1230001
1.6780349 -2.521297 6.1200004
1.6802285 -2.5132589 6.1280003
1.6893538 -2.5099781 6.1200004
1.6915622 -2.5019252 6.1280003
1.670801 -2.8111441 6.1350002
1.6818736 -2.7879961 6.1340003
1.6821477 -2.6636369 6.1350002
1.6826961 -2.6531549 6.1370001
1.681051 -2.5031502 6.1310005
1.6824219 -2.4597974 6.1360002
1.6932184 -2.4589956 6.1340003
1.650794 -3.04303 6.1450005
1.6610773 -2.8706822 6.1410003
1.6629707 -2.8171008 6.1480002
1.6746138 -2.8061864 6.1490002
1.6740692 -2.771167 6.1470003
1.6735245 -2.7589002 6.1450005
1.6740692 -2.7484293 6.1470003
1.6743414 -2.7375057 6.1480002
1.6737968 -2.7252481 6.1460004
1.6732521 -2.7129979 6.1440001
1.6729797 -2.7011948 6.1430001
1.6737968 -2.6911469 6.1460004
1.6721628 -2.6317401 6.1400003
1.6746138 -2.5559895 6.1490002
1.6746138 -2.5446169 6.1490002
1.6737968 -2.5320084 6.1460004
1.685438 -2.4983137 6.1470003
1.6857122 -2.4873493 6.1480002
1.6848897 -2.4747705 6.1450005
1.6656756 -2.924186 6.1580005
1.6762478 -2.7975409 6.1550002
1.6757032 -2.7852519 6.1530004
1.6748861 -2.681524 6.1500001
1.6770649 -2.6736228 6.1580005
1.6751585 -2.5909498 6.1510005
1.6765202 -2.5816703 6.1560001
1.6765202 -2.5702848 6.1560001
1.6572415 -2.8951807 6.1690001
1.6561669 -2.8134882 6.1650004
1.6662166 -2.8112063 6.1600003
1.6564355 -2.8025405 6.1660004
1.6670281 -2.801177 6.1630001
1.6778818 -2.6635306 6.1610003
1.6776096 -2.6517053 6.1600003
1.6678395 -2.5972681 6.1660004
1.6694624 -2.8965888 6.1720004
1.6593906 -2.7961159 6.1770005
1.6694624 -2.7938526 6.1720004
1.6702739 -2.7837899 6.1750002
1.6596591 -2.7737162 6.1780005
1.6694624 -2.7710223 6.1720004
1.6599278 -2.762737 6.1790004
1.6702739 -2.7609487 6.1750002
1.6705444 -2.7499731 6.1760001
1.6697329 -2.7372203 6.1730003
1.6689215 -2.7244787 6.1700001
1.6694624 -2.7139466 6.1720004
1.6705444 -2.704283 6.1760001
1.6705444 -2.6928606 6.1760001
1.6708149 -2.6818721 6.1770005
1.6697329 -2.6458845 6.1730003
1.6700034 -2.5892191 6.1740003
1.6713558 -2.5570316 6.1790004
1.6610024 -2.9360576 6.1830001
1.6511676 -2.9160135 6.1890001
1.6604651 -2.7864947 6.1810002
1.6610024 -2.7530899 6.1830001
1.661271 -2.7420979 6.1840005
1.6607337 -2.7297776 6.1820002
1.661271 -2.7192233 6.1840005
1.6618083 -2.7086618 6.1860003
1.6610024 -2.6959126 6.1830001
1.661271 -2.6849113 6.1840005
1.6626142 -2.6756356 6.1890001
1.6718969 -2.6721771 6.1810002
1.6626142 -2.6641891 6.1890001
1.6732494 -2.6628976 6.1860003
1.6607337 -2.6497421 6.1820002
1.6623455 -2.5836456 6.1880002
1.6718969 -2.5807228 6.1810002
1.6716263 -2.5688753 6.1800003
1.6636888 -2.9293523 6.1930003
1.6628829 -2.9164848 6.1900001
1.6557031 -2.740375 6.2060003
1.6559699 -2.7178569 6.2070003
1.6543691 -2.7037611 6.2010002
1.6554363 -2.6710765 6.2050004
1.657037 -2.7310958 6.2110004
1.6567702 -2.6617436 6.2100005
1.6578374 -2.6519651 6.2140002
1.6581042 -2.6408973 6.2150002
1.6503187 -2.7390106 6.2290001
1.6497889 -2.7266145 6.2270002
1.6529682 -2.6741736 6.2390003
1.6550877 -2.6660488 6.2470002
1.6558825 -2.6557696 6.2500005
1.6660793 -2.0521584 6.4230003
1.6562603 -2.0547142 6.4310002
1.6572905 -2.0440907 6.4350004
1.6565179 -2.0312417 6.4320002
1.64948 -2.0611043 6.4510002
1.6507585 -2.0507615 6.4560003
1.6522926 -2.0407159 6.4620004
1.6570948 -1.8563085 6.5280004
1.6510692 -1.8510152 6.5520005
1.6472061 -1.8238012 6.5850005
1.644214 -1.7850591 6.6220002
1.644214 -1.7728118 6.6220002
1.6317202 -1.6500884 6.6210003
