# .PCD v0.7 - Point Cloud Data file format
VERSION 0.7
FIELDS x y z
SIZE 4 4 4
TYPE F F F
COUNT 1 1 1
WIDTH 1498
HEIGHT 1
VIEWPOINT 0 0 0 1 0 0 0
POINTS 1498
DATA ascii
-1.8768644 -0.93481034 3.1345
-1.8741699 -0.92478353 3.1300001
-1.868381 -0.91899455 3.1300001
-1.868381 -0.9074167 3.1300001
-1.8637823 -0.81531423 3.1320002
-1.8935801 -1.3529724 3.1430001
-1.9082369 -1.3493025 3.1480002
-1.89846 -1.3459355 3.1446667
-1.9006017 -1.333475 3.1450002
-1.903019 -1.3264349 3.1490002
-1.9006017 -1.3014832 3.1450002
-1.8971949 -1.2973144 3.1490002
-1.897089 -1.2865332 3.1440001
-1.901206 -1.2786229 3.1460001
-1.898294 -1.2728043 3.1460001
-1.8935801 -1.2657776 3.1430001
-1.8845612 -1.2568586 3.1425002
-1.8907702 -1.2328578 3.1480002
-1.8877671 -1.2367127 3.1430001
-1.8971949 -1.1924809 3.1490002
-1.8937753 -1.1864573 3.1433334
-1.8871665 -1.1782079 3.1420002
-1.8837504 -1.1447966 3.1460001
-1.8807565 -1.1342633 3.141
-1.8791257 -1.1338799 3.1480002
-1.8794242 -1.1253248 3.1485002
-1.8785288 -1.1160586 3.1470001
-1.8749473 -1.1081214 3.141
-1.8694355 -0.98337781 3.1415
-1.8738986 -0.97698987 3.1490002
-1.8801578 -0.95096785 3.1400001
-1.877335 -0.9524821 3.1450002
-1.8776333 -0.94390762 3.1455002
-1.8761411 -0.93443745 3.1430001
-1.8747214 -0.92645109 3.1455002
-1.8727084 -0.9181655 3.1470001
-1.8622504 -0.87215638 3.1490002
-1.8738986 -0.8605082 3.1490002
-1.8633287 -0.86413139 3.141
-1.8654051 -0.85636652 3.1445003
-1.8592936 -0.85914189 3.1440001
-1.8733035 -0.83112377 3.1480002
-1.8697331 -0.82372856 3.1420002
-1.8651084 -0.81553245 3.1440001
-1.8662949 -0.80732161 3.1460001
-1.8674812 -0.79036814 3.1480002
-1.8674812 -0.7845459 3.1480002
-1.8919715 -1.3501598 3.1500001
-1.9026172 -1.3419073 3.1580002
-1.8981906 -1.3466811 3.1555002
-1.9060407 -1.3227077 3.154
-1.9069471 -1.3145831 3.1555002
-1.9008098 -1.3056215 3.1550002
-1.8987011 -1.2837713 3.1515002
-1.8973771 -1.2722213 3.1590002
-1.887343 -1.2635726 3.1520002
-1.8891394 -1.2414345 3.1550002
-1.890337 -1.2363826 3.1570001
-1.9026172 -1.2134113 3.1580002
-1.8969165 -1.2044772 3.155
-1.8957863 -1.1963415 3.1515002
-1.8897382 -1.1834576 3.1560001
-1.8885406 -1.1739577 3.154
-1.8858443 -1.1639997 3.1560001
-1.8861939 -1.1552392 3.1533337
-1.8821104 -1.1444309 3.1530001
-1.876874 -1.1039596 3.1540003
-1.876874 -1.083541 3.154
-1.8728204 -0.99698853 3.1570001
-1.8756838 -0.97209102 3.1520002
-1.8744937 -0.96564823 3.1500001
-1.8756838 -0.95751506 3.152
-1.8783617 -0.94720662 3.1565003
-1.8798493 -0.9362731 3.1590002
-1.8725238 -0.92385572 3.1565001
-1.8762789 -0.91408461 3.1530001
-1.8716339 -0.87381816 3.1550002
-1.8617321 -0.87464905 3.1580002
-1.8756838 -0.86715764 3.1520002
-1.8617321 -0.86296761 3.1580002
-1.8742511 -0.85325652 3.1545002
-1.8652073 -0.85312271 3.1540003
-1.8652073 -0.84437454 3.154
-1.8599635 -0.84464228 3.1550002
-1.8663901 -0.83907294 3.1560001
-1.8599635 -0.83880705 3.1550002
-1.8728204 -0.82766104 3.1570001
-1.8698542 -0.80303168 3.1520002
-1.8686677 -0.79669625 3.1500001
-1.893773 -1.355064 3.1660004
-1.9003803 -1.3444568 3.164
-1.9034541 -1.335784 3.1642499
-1.9059308 -1.3237648 3.1635003
-1.9050272 -1.3143663 3.1620002
-1.9021821 -1.3047299 3.1670001
-1.9003803 -1.2947164 3.164
-1.9018817 -1.2840278 3.1665001
-1.8963248 -1.2754431 3.1670001
-1.8963248 -1.2344415 3.1670001
-1.9009808 -1.2161009 3.1650002
-1.8969235 -1.2055352 3.1680002
-1.8919772 -1.1958343 3.1630001
-1.8898704 -1.193063 3.1660001
-1.8874828 -1.1857076 3.1620002
-1.8868858 -1.1765631 3.1610003
-1.8858001 -1.1238607 3.1690001
-1.8799391 -1.1238607 3.1690001
-1.8816346 -1.11553 3.1620002
-1.8787526 -1.0880072 3.1670001
-1.874078 -1.0007782 3.1690001
-1.8769729 -0.99334735 3.164
-1.8772695 -0.98472381 3.1645002
-1.8799391 -0.97440332 3.1690001
-1.8775661 -0.9643929 3.1650002
-1.8736007 -0.9550842 3.1632502
-1.8760098 -0.94507885 3.1656666
-1.8799391 -0.93630636 3.1690001
-1.884015 -0.91199791 3.1660001
-1.875811 -0.91375643 3.1653335
-1.8767128 -0.90685791 3.1685002
-1.8723038 -0.88272029 3.1660001
-1.8822297 -0.87603384 3.1630001
-1.8639051 -0.8551237 3.1650002
-1.8760831 -0.84372425 3.1625001
-1.8734636 -0.8335703 3.1646669
-1.8650842 -0.83418638 3.1670001
-1.8717124 -0.81512606 3.165
-1.8683977 -0.80464536 3.1660004
-1.8705298 -0.79998416 3.1630001
-1.8687829 -0.79463637 3.1650002
-1.872304 -0.78610134 3.1660001
-1.8682169 -0.78977954 3.1690001
-1.8617681 -0.76609343 3.1680002
-1.9029113 -1.3504058 3.1780002
-1.893452 -1.3537228 3.1720002
-1.9029113 -1.3327726 3.1780002
-1.905986 -1.3249427 3.1733334
-1.903984 -1.3118289 3.1700001
-1.8981211 -1.3001029 3.1700001
-1.9005162 -1.2900028 3.1740003
-1.8993186 -1.2950566 3.1720002
-1.8993186 -1.2833234 3.1720002
-1.8955412 -1.264184 3.1755002
-1.8964366 -1.2559669 3.177
-1.9017137 -1.2320756 3.1760001
-1.9023125 -1.2236496 3.177
-1.8987198 -1.2125416 3.1710002
-1.8976305 -1.2097211 3.1790001
-1.8917509 -1.1920824 3.1790001
-1.8899657 -1.1850834 3.1760001
-1.889073 -1.1757172 3.1745002
-1.8911558 -1.1623188 3.1780002
-1.8899657 -1.1674613 3.1760001
-1.8905607 -1.1560771 3.177
-1.8866928 -1.1449165 3.1705003
-1.8876091 -1.1339358 3.1753337
-1.8794004 -1.0800307 3.1780002
-1.8752607 -1.0541927 3.1710002
-1.8761477 -1.0458915 3.1725001
-1.8776263 -0.99386567 3.1750002
-1.8770349 -0.98474622 3.1740003
-1.8782177 -0.97655571 3.1760001
-1.8752607 -0.96622115 3.1710002
-1.8726385 -0.95321012 3.1765001
-1.8746693 -0.94246477 3.1700001
-1.8779219 -0.93528795 3.1755002
-1.8791047 -0.92412716 3.1775002
-1.8770349 -0.90256172 3.1740003
-1.8834984 -0.89110178 3.1750002
-1.8764554 -0.89343578 3.1763334
-1.8817188 -0.88439316 3.1720002
-1.8679318 -0.88481134 3.1735001
-1.8629435 -0.86038381 3.1700001
-1.8658819 -0.83238006 3.1750002
-1.8741026 -0.82472277 3.1756668
-1.8705751 -0.81425029 3.1730001
-1.8676449 -0.80377799 3.1780002
-1.8676449 -0.79790026 3.1780002
-1.8735226 -0.78614479 3.1780002
-1.8652942 -0.76167405 3.1740003
-1.8541375 -0.69438779 3.1750002
-1.8994212 -1.3521055 3.1820002
-1.9062045 -1.3439114 3.1835003
-1.9021075 -1.3333893 3.1865001
-1.9068034 -1.3266625 3.1845002
-1.904453 -1.3152974 3.1855001
-1.9035997 -1.3019973 3.1890001
-1.9030029 -1.2839004 3.1880002
-1.8988243 -1.251665 3.1810002
-1.9030029 -1.2426269 3.1880002
-1.8994212 -1.2461734 3.1820002
-1.9024059 -1.2245541 3.187
-1.9012121 -1.2178949 3.1850002
-1.8959165 -1.215333 3.1860003
-1.8935361 -1.2049775 3.1820002
-1.8935361 -1.1990924 3.1820002
-1.887651 -1.1549549 3.1820002
-1.8870578 -1.1428237 3.1810002
-1.881766 -1.1225859 3.1820002
-1.88354 -1.1148064 3.1849999
-1.88354 -1.0883003 3.1850002
-1.8773546 -1.0557345 3.1845002
-1.8770598 -1.046737 3.1840003
-1.8788284 -0.9710964 3.187
-1.8752912 -0.96338493 3.1810002
-1.871171 -0.95840466 3.1840003
-1.8699957 -0.95191753 3.1820002
-1.8773546 -0.94382846 3.1845002
-1.8800075 -0.92452133 3.1890001
-1.874553 -0.91445416 3.1847503
-1.8764703 -0.90512097 3.1830001
-1.8744102 -0.89671338 3.1845002
-1.8644035 -0.87260413 3.1825004
-1.8676256 -0.8652693 3.1880002
-1.8664539 -0.85588861 3.1860001
-1.8649893 -0.84343892 3.1835003
-1.8682114 -0.83605039 3.1890001
-1.8735218 -0.82694298 3.1880002
-1.8717587 -0.8173297 3.1850002
-1.8688203 -0.81016523 3.1800001
-1.8676255 -0.80335999 3.1880002
-1.8705834 -0.79326862 3.1830001
-1.8611454 -0.72353315 3.187
-1.8605614 -0.71152109 3.1860001
-1.8605614 -0.70562857 3.1860001
-1.8570575 -0.68077403 3.1800001
-1.8994869 -1.3622583 3.1920002
-1.9047936 -1.350028 3.1910002
-1.9047936 -1.3441262 3.1910002
-1.9047936 -1.3264209 3.1910002
-1.9041966 -1.3083055 3.1900001
-1.9044951 -1.293759 3.1905003
-1.9059875 -1.2800087 3.1930001
-1.9024624 -1.2756993 3.1970003
-1.9006771 -1.2685949 3.1940002
-1.8994869 -1.2618968 3.1920002
-1.900082 -1.2534341 3.1930001
-1.9030573 -1.2435665 3.1980002
-1.9038187 -1.2346047 3.1926668
-1.8980163 -1.2244775 3.1945
-1.8965495 -1.2136142 3.1970003
-1.8971426 -1.2051218 3.1980002
-1.8924056 -1.1951289 3.1950002
-1.8935833 -1.1851499 3.1920002
-1.8929954 -1.1761683 3.1943333
-1.8926058 -1.1672963 3.1970003
-1.8909323 -1.1546657 3.1975002
-1.8870883 -1.1051049 3.1910002
-1.8870869 -1.0950117 3.1960001
-1.8823656 -1.0851284 3.1930001
-1.8776355 -1.0326257 3.1950002
-1.8841342 -0.99453008 3.1960001
-1.8811866 -0.98411876 3.1910002
-1.8811866 -0.97821701 3.1910002
-1.8761663 -0.94619954 3.1925001
-1.8838394 -0.93527138 3.1955001
-1.8782232 -0.92655069 3.1960001
-1.8764602 -0.90501189 3.1930001
-1.8726051 -0.89418232 3.1965003
-1.8666933 -0.86461985 3.1965003
-1.8658172 -0.85535085 3.1950002
-1.8655252 -0.84635329 3.1945
-1.8717264 -0.83171421 3.1950002
-1.867861 -0.83558273 3.1985002
-1.8717264 -0.82580507 3.1950002
-1.8681531 -0.82683897 3.1990001
-1.8717264 -0.81989592 3.1950002
-1.869061 -0.81411415 3.1955001
-1.8652332 -0.80487192 3.1940002
-1.8726051 -0.79367483 3.1965003
-1.8669852 -0.7967577 3.1970003
-1.8748804 -0.78608018 3.1936667
-1.8740933 -0.77828813 3.1940002
-1.868768 -0.77262259 3.1950002
-1.8782232 -0.76104242 3.1960001
-1.8678912 -0.76635349 3.1935
-1.8752687 -0.75513142 3.1960001
-1.869383 -0.75985181 3.1910002
-1.8616806 -0.71739358 3.1946666
-1.8613634 -0.70521915 3.1975002
-1.8604902 -0.69602132 3.1960001
-1.8649412 -0.67480135 3.1935
-1.8675691 -0.66688335 3.1980002
-1.9036682 -1.3754485 3.2090001
-1.9057353 -1.3578526 3.2025001
-1.907818 -1.3445151 3.2060001
-1.9075204 -1.335413 3.2055001
-1.9078181 -1.32376 3.2060003
-1.9090081 -1.291955 3.2080002
-1.9024817 -1.2381701 3.2070003
-1.895959 -1.2318546 3.2060001
-1.8971441 -1.2277369 3.2030001
-1.8932978 -1.215323 3.2015002
-1.8941848 -1.207006 3.2030001
-1.8927064 -1.1853458 3.2005
-1.8947762 -1.14516 3.204
-1.8965504 -1.1373371 3.2070003
-1.8888505 -1.1125699 3.2040002
-1.890619 -1.1047156 3.2070003
-1.8843938 -1.0748907 3.2065001
-1.8858631 -1.0668257 3.2090001
-1.8858631 -1.0549556 3.2090001
-1.8826308 -1.0442634 3.2035003
-1.8778775 -1.0330536 3.2055001
-1.8817493 -1.028966 3.2020001
-1.8882608 -1.0115155 3.2030001
-1.8882608 -1.0055915 3.2030001
-1.8846877 -0.98608756 3.2070003
-1.8841 -0.97688586 3.2060001
-1.8805739 -0.96913922 3.2
-1.8781705 -0.9650268 3.2060001
-1.8775847 -0.95583344 3.2050002
-1.8793421 -0.94782925 3.2080002
-1.8811616 -0.93688059 3.2010002
-1.8793421 -0.92409641 3.2080002
-1.879928 -0.90657932 3.2090001
-1.8739929 -0.89470923 3.2090001
-1.8687371 -0.82117903 3.2
-1.8680578 -0.81161845 3.2090001
-1.8668936 -0.80518126 3.2070003
-1.871073 -0.79257643 3.2040002
-1.8668936 -0.79924995 3.2070003
-1.871657 -0.78393328 3.2050002
-1.8687371 -0.76199496 3.2
-1.8616004 -0.69162184 3.2030001
-1.8592215 -0.69776356 3.2040002
-1.8642186 -0.68369555 3.2075005
-1.8633459 -0.67448115 3.2060003
-1.8680915 -0.66452974 3.2056668
-1.8642199 -0.63623822 3.2075
-1.8550309 -0.63317204 3.2070003
-1.860382 -0.62704509 3.2060001
-1.8556093 -0.62743622 3.2080002
-1.9036632 -1.3835359 3.2140002
-1.9027723 -1.3710071 3.2125001
-1.9101983 -1.3521295 3.21
-1.9066343 -1.3419257 3.2140002
-1.9054478 -1.3351501 3.2120001
-1.9063377 -1.326858 3.2135
-1.9104959 -1.3137448 3.2105002
-1.9090072 -1.3197891 3.2180002
-1.9107934 -1.3050407 3.2110002
-1.9090072 -1.301934 3.2180002
-1.9101983 -1.2986974 3.21
-1.9078208 -1.2951769 3.2160001
-1.9101983 -1.2868235 3.21
-1.908414 -1.2896297 3.2170002
-1.908414 -1.2717801 3.2170002
-1.9054478 -1.263863 3.2120001
-1.9057446 -1.255147 3.2125001
-1.9066343 -1.246817 3.2140002
-1.8995073 -1.2401005 3.2120001
-1.8976934 -1.230896 3.2190001
-1.8947457 -1.2230397 3.2140002
-1.8941562 -1.2137456 3.2130001
-1.8941562 -1.2048318 3.2130001
-1.8965143 -1.1974052 3.217
-1.8959248 -1.1821649 3.2160001
-1.8959248 -1.1762168 3.2160001
-1.8950405 -1.1667509 3.2145002
-1.8965143 -1.1557562 3.217
-1.8976934 -1.1415927 3.2190001
-1.8947457 -1.1338753 3.2140002
-1.8935666 -1.1242568 3.2120001
-1.8882138 -1.0859829 3.2130001
-1.8870384 -1.0615519 3.2110002
-1.8840288 -1.0542839 3.2160001
-1.8810996 -1.0437356 3.2110002
-1.8917398 -1.0284754 3.2190001
-1.8858284 -0.9941833 3.2140002
-1.883443 -0.98557431 3.2150002
-1.8819783 -0.97589701 3.2125001
-1.8798327 -0.95107925 3.2190001
-1.8805138 -0.94248325 3.21
-1.8808067 -0.93372375 3.2105002
-1.8810997 -0.91605151 3.211
-1.8769128 -0.90204757 3.2140002
-1.8721328 -0.89666086 3.2160001
-1.8689311 -0.88622117 3.2105002
-1.8715507 -0.87259746 3.2150002
-1.8692222 -0.87745059 3.2110002
-1.8721328 -0.86394691 3.2160001
-1.8732971 -0.85555661 3.2180002
-1.8738792 -0.8439154 3.2190001
-1.8712596 -0.83381921 3.2145
-1.8715507 -0.8250283 3.2150002
-1.8715507 -0.81908214 3.2150002
-1.8724239 -0.79269183 3.2165003
-1.8673453 -0.79603964 3.2180002
-1.8718417 -0.77460694 3.2155001
-1.8735881 -0.76342344 3.2185001
-1.857923 -0.70544642 3.2120001
-1.85908 -0.69994134 3.2140002
-1.8635736 -0.6667273 3.2115002
-1.8727149 -0.65894574 3.2170002
-1.866765 -0.65894574 3.2170002
-1.8732971 -0.6472472 3.2180002
-1.8638637 -0.64009976 3.2120001
-1.8585014 -0.64029908 3.2130001
-1.8548653 -0.62324667 3.2170002
-1.8608152 -0.61729681 3.2170002
-1.9127644 -1.3641256 3.2243335
-1.9083779 -1.3413852 3.2270002
-1.9083779 -1.3354169 3.2270002
-1.9101937 -1.314654 3.2200003
-1.9101937 -1.3086985 3.2200003
-1.9107869 -1.2852761 3.2210002
-1.9101937 -1.2789216 3.2200003
-1.9095607 -1.2705522 3.2290001
-1.9071952 -1.2630135 3.2250001
-1.9083779 -1.2548434 3.2270002
-1.899462 -1.2380023 3.2220001
-1.8973228 -1.2255725 3.2285001
-1.8964412 -1.21605 3.2270002
-1.8961474 -1.1949751 3.2265
-1.8970683 -1.1877156 3.223
-1.8946782 -1.1761622 3.224
-1.8943844 -1.1640548 3.2235003
-1.8967351 -1.1535606 3.2275002
-1.8967744 -1.1458118 3.2225003
-1.893209 -1.1335425 3.2215002
-1.8946782 -1.1254777 3.2240002
-1.8952659 -1.1019682 3.2250001
-1.8929151 -1.0946441 3.2210002
-1.8916446 -1.0764607 3.2290001
-1.8863721 -1.0645273 3.2200003
-1.8842125 -1.033854 3.2265
-1.8931623 -1.0249043 3.2265
-1.8869579 -1.0291144 3.2210002
-1.8964412 -1.0131264 3.2270002
-1.8940905 -1.0059096 3.223
-1.8866081 -0.99773824 3.2255001
-1.8856726 -0.97194999 3.2290001
-1.8827527 -0.96448213 3.2240002
-1.8810006 -0.95762742 3.2210002
-1.877663 -0.95598298 3.2255001
-1.8815846 -0.94302607 3.2220001
-1.8788273 -0.94463539 3.2275
-1.8810006 -0.93379843 3.2210002
-1.8791183 -0.93582779 3.2280002
-1.8833365 -0.92601019 3.2250001
-1.8791183 -0.92985761 3.2280002
-1.8827527 -0.91677976 3.2240002
-1.877372 -0.91408372 3.2250001
-1.8804168 -0.90968692 3.2200003
-1.8744613 -0.90373152 3.2200003
-1.8744613 -0.85013294 3.2200003
-1.8684223 -0.81566519 3.2250001
-1.8674086 -0.80627978 3.2232504
-1.8708271 -0.79156107 3.2240002
-1.8732253 -0.78535461 3.223
-1.8702468 -0.7764132 3.223
-1.8714073 -0.76496571 3.2250001
-1.8625505 -0.73698044 3.2200003
-1.8606312 -0.7027725 3.2270002
-1.8631289 -0.69550854 3.2210002
-1.8631289 -0.68657362 3.2210002
-1.8639965 -0.67497098 3.2225003
-1.8634526 -0.66257197 3.2250004
-1.8744613 -0.65360487 3.2200003
-1.8663968 -0.65390933 3.2215002
-1.8663968 -0.64795113 3.2215002
-1.8708271 -0.62460279 3.2240002
-1.8625505 -0.62382787 3.2200003
-1.8562046 -0.61873591 3.2245002
-1.9101521 -1.3725017 3.2300003
-1.9071258 -1.3746264 3.2350001
-1.9113349 -1.3673741 3.2320001
-1.9149141 -1.3528466 3.2330003
-1.9119262 -1.3319205 3.233
-1.9142917 -1.3245881 3.2370002
-1.9142917 -1.3156078 3.2370002
-1.9125175 -1.3054175 3.2340002
-1.9094839 -1.3044397 3.2390001
-1.9125175 -1.2934531 3.2340002
-1.9088944 -1.2980483 3.2380002
-1.9131089 -1.2848793 3.2350001
-1.9113349 -1.2777102 3.2320001
-1.9077153 -1.2763 3.2360001
-1.9047678 -1.2653633 3.2310002
-1.9062415 -1.2573705 3.2335
-1.9047678 -1.2474362 3.2310002
-1.900555 -1.2366318 3.2340002
-1.896917 -1.2321726 3.2380002
-1.8972099 -1.2233779 3.2385001
-1.8987919 -1.2115817 3.2310002
-1.9011427 -1.2070985 3.2350001
-1.8982043 -1.1215982 3.2300003
-1.8987919 -1.1159698 3.2310002
-1.8987919 -1.1099941 3.2310002
-1.8945737 -1.0870996 3.2340002
-1.8897604 -1.0817869 3.2360001
-1.8915123 -1.0708086 3.2390001
-1.8891764 -1.0754694 3.2350001
-1.8915123 -1.0648181 3.2390001
-1.8897604 -1.0518619 3.2360001
-1.8868405 -1.0442609 3.2310002
-1.8972678 -1.0211474 3.2335002
-1.8880085 -1.026969 3.233
-1.8963312 -1.0162659 3.2370002
-1.89275 -1.0069717 3.2360001
-1.8840202 -0.99308664 3.2330005
-1.8861821 -0.9857223 3.2350001
-1.8855999 -0.97644377 3.2340002
-1.8802826 -0.96627706 3.2300003
-1.8802826 -0.92445982 3.2300003
-1.878951 -0.92076081 3.2380002
-1.8772101 -0.91392463 3.2350001
-1.8757594 -0.90425104 3.2325001
-1.874889 -0.89486736 3.2310002
-1.8744396 -0.88563651 3.2336667
-1.8754067 -0.87612182 3.2353334
-1.8777905 -0.86632723 3.2360001
-1.8775003 -0.83328146 3.2355001
-1.8727679 -0.82354057 3.2325001
-1.8718054 -0.80049235 3.2360001
-1.8729622 -0.79499841 3.2380002
-1.8646673 -0.7342034 3.2340002
-1.8615596 -0.7053858 3.2390001
-1.8669736 -0.69917935 3.2380002
-1.8629376 -0.66778916 3.2310002
-1.8598354 -0.66283756 3.2360001
-1.9058441 -1.3780258 3.2430003
-1.9160658 -1.3647662 3.2400002
-1.9172486 -1.3596126 3.2420001
-1.9112525 -1.3446224 3.2420001
-1.9112525 -1.314641 3.2420001
-1.910663 -1.2932566 3.2410002
-1.9100735 -1.2868652 3.2400002
-1.9087825 -1.2750256 3.2480001
-1.9093702 -1.2664037 3.2490001
-1.9028424 -1.2460711 3.243
-1.8998462 -1.2400732 3.2430003
-1.8980887 -1.2149565 3.2400002
-1.8989675 -1.2065268 3.2415001
-1.9010178 -1.1988266 3.2450001
-1.9021895 -1.1755441 3.2470002
-1.9010178 -1.1658175 3.2450001
-1.9010178 -1.1568152 3.2450001
-1.8998462 -1.1501042 3.2430003
-1.8980134 -1.1448119 3.2450001
-1.9010178 -1.1328086 3.2450001
-1.8974284 -1.1384592 3.2440002
-1.9033612 -1.1251915 3.2490001
-1.9018965 -1.1063137 3.2465
-1.8977213 -1.0966299 3.2445002
-1.8920963 -1.0891165 3.2400002
-1.8920963 -1.0591545 3.2400002
-1.8884324 -1.033463 3.2440002
-1.8956002 -1.025095 3.2460001
-1.8973521 -1.0140243 3.2490001
-1.8860128 -1.0037725 3.2450001
-1.885334 -0.99599719 3.2490001
-1.8861039 -0.98125345 3.2400002
-1.8835932 -0.97106361 3.2460001
-1.8806918 -0.96357358 3.2410002
-1.8815622 -0.95502174 3.2425003
-1.8850439 -0.94477546 3.2485001
-1.8824327 -0.93446654 3.2440002
-1.8801116 -0.92732197 3.2400002
-1.8764329 -0.92246699 3.2440002
-1.8746976 -0.91561967 3.2410002
-1.8741192 -0.90634859 3.2400002
-1.8744084 -0.89450139 3.2405002
-1.8758545 -0.87419915 3.2430003
-1.8801116 -0.86140567 3.2400002
-1.8775897 -0.86900437 3.2460001
-1.8815622 -0.85307437 3.2425003
-1.8801116 -0.84342849 3.2400002
-1.8764329 -0.83247024 3.2440002
-1.8724511 -0.82435942 3.2475002
-1.86928 -0.81396872 3.2420001
-1.8698565 -0.80822188 3.2430003
-1.8749868 -0.78686452 3.2415001
-1.8761437 -0.77535224 3.2435002
-1.8695682 -0.74512815 3.2425003
-1.8638586 -0.73624665 3.2430003
-1.865008 -0.70069087 3.2450001
-1.8704331 -0.69447517 3.2440002
-1.8704331 -0.68247557 3.2440002
-1.8698565 -0.68826312 3.2430003
-1.8674314 -0.67347407 3.244
-1.9068761 -1.3831248 3.2550001
-1.9161973 -1.3773162 3.2555001
-1.919506 -1.3594619 3.256
-1.9099579 -1.3509458 3.2500002
-1.9128963 -1.340984 3.2550001
-1.9099579 -1.3449349 3.2500002
-1.9174426 -1.3369439 3.2525001
-1.9139204 -1.3262577 3.2533333
-1.9117209 -1.3160943 3.2530003
-1.911721 -1.3070687 3.2530003
-1.9126024 -1.2956344 3.2545002
-1.908417 -1.2828044 3.2525001
-1.9057045 -1.2739792 3.2530003
-1.9111333 -1.2615584 3.2520001
-1.9080478 -1.269522 3.2570002
-1.90871 -1.2559299 3.2530003
-1.9031919 -1.2341363 3.2590001
-1.9031919 -1.21304 3.2590001
-1.9045328 -1.1950305 3.2510002
-1.9045329 -1.1860123 3.2510002
-1.8988121 -1.1561269 3.2515001
-1.900856 -1.1302794 3.2550001
-1.8985201 -1.1349032 3.2510002
-1.90144 -1.1246047 3.256
-1.9022757 -1.1158882 3.2539999
-1.900856 -1.1061989 3.2550001
-1.8948358 -1.0941586 3.2550001
-1.8939626 -1.0846279 3.2535002
-1.8971645 -1.0774206 3.2590001
-1.8965822 -1.0529873 3.2580001
-1.8925073 -1.0447122 3.2510002
-1.8893961 -1.0402969 3.256
-1.8882354 -1.0336397 3.2540002
-1.8944429 -1.0257224 3.2543335
-1.8899763 -1.0104973 3.2570002
-1.8882354 -0.9915117 3.2540002
-1.8893961 -0.98609912 3.256
-1.8876551 -0.97917414 3.2530003
-1.8851093 -0.96892512 3.2590001
-1.8839525 -0.9321875 3.2570002
-1.8799034 -0.86406434 3.2500002
-1.8816388 -0.85583735 3.2530003
-1.8816388 -0.84681267 3.2530003
-1.8799034 -0.84002084 3.2500002
-1.8724796 -0.83003718 3.2580001
-1.8730543 -0.82426447 3.2590001
-1.8743383 -0.80543971 3.256
-1.8770638 -0.79628313 3.2555003
-1.8790818 -0.78809929 3.2590001
-1.8690312 -0.74430442 3.2520001
-1.868172 -0.69461042 3.2540004
-1.8701806 -0.68457937 3.2540002
-1.8678817 -0.67772698 3.2500002
-1.9251064 -1.3724862 3.2655001
-1.9187731 -1.3632196 3.2650001
-1.9158347 -1.3370144 3.2600002
-1.9139061 -1.3217584 3.2670002
-1.9144919 -1.3161187 3.2680001
-1.9144919 -1.2979863 3.2680001
-1.9115628 -1.2899654 3.2630002
-1.9098053 -1.2646619 3.2600002
-1.9078637 -1.2552928 3.2670002
-1.9052359 -1.2445151 3.2625003
-1.9029857 -1.2379231 3.2690001
-1.9049438 -1.2262228 3.2620001
-1.9029857 -1.2167621 3.2690001
-1.9072798 -1.2065848 3.2660003
-1.9045488 -1.1735395 3.2665
-1.9049438 -1.1689086 3.2620001
-1.9000751 -1.1032207 3.2640002
-1.8963594 -1.1045727 3.2680001
-1.8931679 -1.0936642 3.2625003
-1.893458 -1.084778 3.2630002
-1.899493 -1.0727081 3.2630002
-1.9006572 -1.0673269 3.2650001
-1.8973441 -1.0581038 3.2645001
-1.8928777 -1.048247 3.2620001
-1.8977908 -1.0236692 3.2670002
-1.8989108 -1.0180817 3.2620001
-1.8880016 -0.97644842 3.2640002
-1.8856878 -0.96319306 3.2600002
-1.8891584 -0.95892531 3.2660003
-1.8897368 -0.94109195 3.2670002
-1.8822531 -0.92527986 3.2645001
-1.8822529 -0.91320264 3.2645001
-1.8831179 -0.90456104 3.2660003
-1.8819647 -0.89495289 3.2640002
-1.8813882 -0.88260603 3.263
-1.8836945 -0.8746264 3.2670002
-1.8742038 -0.80064535 3.2610002
-1.8747785 -0.7948578 3.2620001
-1.880235 -0.78255171 3.2610002
-1.87679 -0.78664994 3.2655001
-1.8819647 -0.77723485 3.2640002
-1.8681725 -0.73430187 3.2610002
-1.868459 -0.72536576 3.2615001
-1.8690319 -0.71352112 3.2625003
-1.8716098 -0.69335669 3.2670002
-1.8716098 -0.68127203 3.2670002
-1.86687 -0.67460966 3.2640002
-1.9180069 -1.3851432 3.2740002
-1.924356 -1.376268 3.2745001
-1.9174211 -1.3605063 3.2730002
-1.9174211 -1.354453 3.2730002
-1.9161806 -1.3449101 3.2743332
-1.9174211 -1.3362926 3.2730002
-1.9152684 -1.3278176 3.2745001
-1.9143568 -1.3147668 3.2746668
-1.9143575 -1.3046722 3.2746668
-1.9096158 -1.2927327 3.2700002
-1.9119515 -1.2852292 3.2740002
-1.9128276 -1.2737043 3.2755003
-1.9107836 -1.2632655 3.2720001
-1.9035678 -1.232254 3.2700002
-1.9035678 -1.2262062 3.2700002
-1.9080472 -1.2059622 3.2725
-1.9142876 -1.1958623 3.2780001
-1.9101996 -1.1842331 3.2710001
-1.9047321 -1.1785436 3.2720001
-1.9053142 -1.1637683 3.2730002
-1.9058964 -1.1550429 3.2740002
-1.9038589 -1.1447353 3.2705002
-1.9070606 -1.1345412 3.276
-1.9082249 -1.1261407 3.2780001
-1.9056053 -1.1155145 3.2735
-1.8955212 -1.1015538 3.2770002
-1.8960996 -1.0958273 3.2780001
-1.8975199 -1.0810572 3.2700002
-1.8995509 -1.0731323 3.2735002
-1.8975199 -1.0629135 3.2700002
-1.8932073 -1.0063803 3.2730002
-1.8929181 -0.99412388 3.2725
-1.8914721 -0.98429126 3.2700002
-1.8894603 -0.98639828 3.2770002
-1.8865774 -0.97581685 3.2720003
-1.8868656 -0.96385765 3.2725
-1.8932074 -0.95492715 3.2730002
-1.8932074 -0.94887376 3.2730002
-1.8865774 -0.9364807 3.2720001
-1.887154 -0.86715162 3.2730002
-1.8900369 -0.8533206 3.2780001
-1.8883071 -0.85859674 3.2750001
-1.8733284 -0.81495082 3.2700002
-1.8744743 -0.80637097 3.2720003
-1.8773386 -0.79851288 3.2770002
-1.87562 -0.755395 3.2740002
-1.8747606 -0.74597245 3.2725
-1.8672806 -0.69399339 3.2700002
-1.8734479 -0.68910259 3.2755003
-1.8689938 -0.68252319 3.2730002
-1.9201274 -1.4032285 3.2880001
-1.9177915 -1.3954476 3.2840002
-1.924451 -1.3837214 3.2850001
-1.9250369 -1.3780651 3.2860003
-1.9221077 -1.3699 3.2810001
-1.9166235 -1.3551441 3.2820001
-1.9154555 -1.3361175 3.2800002
-1.9137552 -1.2662102 3.2875001
-1.9117177 -1.255751 3.2840002
-1.9070947 -1.2536693 3.2865
-1.9080968 -1.246258 3.2830002
-1.9079651 -1.2359955 3.2880001
-1.9082552 -1.2240207 3.2885003
-1.912882 -1.2018186 3.2860003
-1.9099712 -1.2060581 3.2810001
-1.9117177 -1.1950134 3.2840002
-1.9092584 -1.1862601 3.2850003
-1.903185 -1.1741121 3.2850001
-1.9024624 -1.1664177 3.2890003
-1.9068044 -1.1167341 3.2860003
-1.8984133 -1.1093047 3.2820001
-1.8995701 -1.0917593 3.2840002
-1.9018838 -1.0657239 3.2880001
-1.9018838 -1.0566021 3.2880001
-1.9004378 -1.0466844 3.2855
-1.9013054 -1.0350022 3.2870002
-1.9024624 -1.0265085 3.2890003
-1.8949378 -1.0044562 3.2865002
-1.8911901 -0.99336767 3.2800002
-1.893208 -0.95495462 3.2835002
-1.8911901 -0.94483674 3.2800002
-1.8902962 -0.9291802 3.2890003
-1.8897215 -0.92281657 3.2880001
-1.8902962 -0.89268214 3.2890003
-1.8902962 -0.88659912 3.2890003
-1.8943613 -0.84615588 3.2855
-1.8830675 -0.83134615 3.2870002
-1.8790573 -0.8235094 3.2800002
-1.8775592 -0.81335562 3.2880001
-1.8781302 -0.80751997 3.2890003
-1.8796302 -0.79341936 3.2810001
-1.8819218 -0.78831106 3.2850001
-1.8769882 -0.74015647 3.2870002
-1.8758461 -0.73363048 3.2850001
-1.8758461 -0.72451711 3.2850001
-1.8758461 -0.71540368 3.2850001
-1.8653969 -0.65524536 3.2880001
-1.9181211 -1.4062159 3.2950001
-1.9218793 -1.3923354 3.2910001
-1.9187033 -1.3974969 3.296
-1.9233392 -1.3842573 3.2934999
-1.9198675 -1.3830975 3.2980001
-1.9239233 -1.3724885 3.2945004
-1.9187032 -1.3761629 3.2960002
-1.9187033 -1.3243481 3.296
-1.9192854 -1.3156023 3.2970002
-1.9192854 -1.2851132 3.2970002
-1.9136196 -1.2742236 3.2925
-1.9083468 -1.2642742 3.2956669
-1.9070897 -1.2546242 3.2970002
-1.9076682 -1.2489051 3.2980001
-1.9111567 -1.2136972 3.2934999
-1.9137678 -1.1940081 3.2980001
-1.9053545 -1.1864678 3.2940001
-1.9102862 -1.161393 3.2920001
-1.9069507 -1.1642592 3.2915001
-1.9081086 -1.155831 3.2935002
-1.9114468 -1.1468661 3.2940001
-1.9137678 -1.1391113 3.2980001
-1.9108665 -1.1252034 3.2930002
-1.9082466 -1.1272537 3.2990003
-1.904776 -1.119113 3.2930002
-1.9009919 -1.1021789 3.2970002
-1.8992622 -1.1072683 3.2940001
-1.9044869 -1.0854496 3.2925
-1.904776 -1.0764802 3.2930002
-1.9059329 -1.0222869 3.2950001
-1.8981091 -1.0152676 3.2920001
-1.8946068 -0.99531865 3.2965002
-1.8925952 -0.98512399 3.2930002
-1.8923078 -0.97584063 3.2925
-1.8946068 -0.96483052 3.2965002
-1.89317 -0.93668503 3.2940001
-1.889942 -0.92590386 3.2990003
-1.8914458 -0.91452754 3.2910001
-1.8893692 -0.91952354 3.2980001
-1.8925952 -0.90594864 3.2930002
-1.8914458 -0.89931172 3.2910001
-1.890871 -0.88078386 3.2900002
-1.8925952 -0.87549657 3.2930002
-1.8934574 -0.86675608 3.2945001
-1.8948941 -0.85826659 3.2970002
-1.8809854 -0.82093209 3.2940001
-1.8777391 -0.8160767 3.2990003
-1.8778712 -0.80509406 3.2956667
-1.8832695 -0.79753035 3.2980001
-1.8812709 -0.76317191 3.2945001
-1.8777391 -0.76116312 3.2990003
-1.8815565 -0.7541461 3.2950001
-1.8769226 -0.74579483 3.2939999
-1.8731856 -0.73497045 3.2910001
-1.8751777 -0.72661006 3.2945001
-1.8771698 -0.71823478 3.2980001
-1.8777391 -0.70624954 3.2990003
-1.8748932 -0.69604075 3.2940001
-1.8746085 -0.68375385 3.2934999
-1.8705029 -0.66923451 3.2970002
-1.8676662 -0.66213107 3.2920001
-1.9147735 -1.4135399 3.3050001
-1.922196 -1.3908821 3.302
-1.922196 -1.372561 3.302
-1.9233603 -1.3642251 3.3040001
-1.9239424 -1.3554702 3.3050001
-1.9233603 -1.3458939 3.3040001
-1.9227781 -1.3363231 3.3030002
-1.9160889 -1.3237045 3.302
-1.926271 -1.3142706 3.3090003
-1.9184101 -1.3191936 3.3060002
-1.9256889 -1.3016372 3.3080001
-1.9227781 -1.2935609 3.3030002
-1.9178298 -1.2851779 3.3050001
-1.9140309 -1.2775506 3.3090003
-1.9079109 -1.2714306 3.3090003
-1.9111388 -1.2450664 3.3040001
-1.9120064 -1.2364619 3.3055
-1.9111388 -1.2236788 3.3040001
-1.9073343 -1.2282193 3.3080001
-1.9128741 -1.2156154 3.3070002
-1.9144372 -1.2038411 3.3026669
-1.9117172 -1.1965424 3.3050001
-1.9027216 -1.1825255 3.3000002
-1.9032983 -1.1737251 3.3010001
-1.9079109 -1.1673906 3.3090003
-1.908825 -1.1520088 3.3000002
-1.9108496 -1.1440654 3.3035002
-1.9133228 -1.1345575 3.3025002
-1.9079109 -1.1245506 3.3090003
-1.9015265 -1.1150404 3.3050003
-1.9006414 -1.1055219 3.3070002
-1.9056046 -1.0987407 3.3050001
-1.9056046 -1.0742903 3.3050001
-1.9064696 -1.0656043 3.3065002
-1.9032983 -1.0455176 3.3010001
-1.9027216 -1.036045 3.3000002
-1.9041631 -1.0276655 3.3025002
-1.8983425 -1.0064423 3.3030002
-1.8933794 -0.96731794 3.3050003
-1.8989173 -0.95480555 3.3040001
-1.8983425 -0.94535321 3.3030002
-1.8919473 -0.93605042 3.3025002
-1.8916607 -0.91453171 3.302
-1.8933794 -0.90619457 3.3050003
-1.8910879 -0.89593911 3.3010001
-1.8908014 -0.88664746 3.3005002
-1.8919472 -0.87496787 3.3025002
-1.8930929 -0.86327344 3.3045001
-1.8971931 -0.8532027 3.3010001
-1.8955746 -0.84468365 3.3035002
-1.8878378 -0.83003718 3.3060002
-1.880585 -0.82342428 3.3040001
-1.883924 -0.79604775 3.3045001
-1.8817234 -0.76889265 3.3060002
-1.8775259 -0.75314689 3.3040001
-1.8756089 -0.74443483 3.3060002
-1.8761762 -0.73854369 3.3070002
-1.8711909 -0.66555035 3.3090003
-1.922472 -1.4047039 3.3130002
-1.9236326 -1.396358 3.3150001
-1.9218918 -1.3859069 3.3120003
-1.9198153 -1.3857659 3.3190002
-1.9239228 -1.3751051 3.3155003
-1.9253734 -1.3362552 3.3180001
-1.9230523 -1.3162565 3.3140001
-1.9272766 -1.3078487 3.3160002
-1.9230523 -1.2978688 3.3140001
-1.9198153 -1.28755 3.3190002
-1.9107939 -1.2794811 3.3140001
-1.9102173 -1.2423306 3.3130002
-1.9084876 -1.2473274 3.3100002
-1.9090641 -1.2354568 3.3110001
-1.9084876 -1.2228401 3.3100002
-1.916923 -1.2120593 3.3140001
-1.9096407 -1.2174534 3.3120003
-1.9096407 -1.1929512 3.3120003
-1.9066762 -1.185729 3.3175001
-1.9102173 -1.1626743 3.3130002
-1.9136767 -1.140226 3.3190002
-1.9102173 -1.1320373 3.3130002
-1.9058141 -1.1269295 3.3160002
-1.9040898 -1.1014004 3.3130002
-1.9080468 -1.0943288 3.3163335
-1.9079808 -1.084951 3.3126669
-1.9035151 -1.0735029 3.3120003
-1.9035151 -1.0643146 3.3120003
-1.9065142 -1.0566759 3.3136666
-1.9027448 -1.0134671 3.3160002
-1.8996811 -1.0042704 3.3160002
-1.8979625 -0.99417078 3.3130002
-1.8979625 -0.98497969 3.3130002
-1.8979625 -0.97885233 3.3130002
-1.8965303 -0.95668352 3.3105001
-1.8968167 -0.94764286 3.3110001
-1.8949758 -0.93444598 3.3185
-1.8952613 -0.92537856 3.3190002
-1.8941193 -0.88494563 3.3170002
-1.8944046 -0.87280536 3.3175001
-1.8973895 -0.85604584 3.3120003
-1.8973895 -0.84992027 3.3120003
-1.8912641 -0.83766919 3.3120003
-1.8862768 -0.83204573 3.3140001
-1.8818496 -0.82052934 3.3170002
-1.8840001 -0.79431039 3.3100002
-1.8812822 -0.76508546 3.3160002
-1.8795803 -0.75826585 3.3130002
-1.8740184 -0.74317074 3.3140001
-1.8770792 -0.73397774 3.3140001
-1.8818496 -0.7285074 3.3170002
-1.8787293 -0.70586467 3.3115001
-1.8807149 -0.69741261 3.3150001
-1.8829843 -0.68597716 3.3190002
-1.8753829 -0.67513722 3.3110003
-1.9203937 -1.3923239 3.3200002
-1.9203937 -1.3800431 3.3200002
-1.9215505 -1.3747305 3.3220003
-1.9317566 -1.3653132 3.3290002
-1.9294355 -1.3698223 3.325
-1.9317566 -1.3529992 3.3290002
-1.9300157 -1.3456285 3.3260002
-1.9227073 -1.3355997 3.3240004
-1.922129 -1.3259771 3.3230002
-1.9265341 -1.3124993 3.3200002
-1.922129 -1.2952476 3.3230002
-1.9115614 -1.2718111 3.3260002
-1.910412 -1.2648987 3.3240001
-1.9124235 -1.2569978 3.3275003
-1.9121361 -1.2414271 3.3270001
-1.910412 -1.2341599 3.3240001
-1.9115614 -1.2287511 3.3260002
-1.9162714 -1.2124581 3.3235002
-1.9171363 -1.2037833 3.325
-1.9059829 -1.1922008 3.3270001
-1.9042642 -1.184978 3.3240001
-1.9127109 -1.1740936 3.3280001
-1.9073353 -1.1788301 3.3240001
-1.9151182 -1.1564413 3.3215003
-1.9140596 -1.1453602 3.3250003
-1.9076208 -1.1328883 3.3245001
-1.904837 -1.1238385 3.325
-1.9062693 -1.1154517 3.3275001
-1.9054099 -1.0749649 3.3260002
-1.9024029 -1.0662304 3.3243334
-1.8998295 -1.0629816 3.3270001
-1.9054099 -1.0534321 3.3260002
-1.8992585 -1.0565106 3.3260002
-1.9084003 -1.045552 3.3205001
-1.9089751 -1.0335798 3.3215003
-1.9086877 -1.0242114 3.3210001
-1.9054099 -1.0196019 3.3260002
-1.8992585 -1.0134505 3.3260002
-1.8981165 -1.0036204 3.3240001
-1.8969743 -0.99379951 3.3220003
-1.8966888 -0.98443568 3.3215003
-1.8969743 -0.97536737 3.3220003
-1.8975453 -0.96644121 3.3230002
-1.897831 -0.95429438 3.3235002
-1.8964033 -0.94436282 3.3210001
-1.8986875 -0.92090183 3.325
-1.9004005 -0.91557759 3.3280001
-1.8992585 -0.9027245 3.3260002
-1.8969743 -0.89549476 3.3220003
-1.8942454 -0.88480186 3.3280001
-1.891115 -0.87412077 3.3225002
-1.8986875 -0.86555552 3.325
-1.8986875 -0.8471067 3.325
-1.8902612 -0.83994544 3.3210001
-1.885821 -0.82840872 3.3240001
-1.8835516 -0.81513113 3.3200002
-1.8869556 -0.80737525 3.3260002
-1.8886576 -0.77424186 3.3290002
-1.8796732 -0.75463575 3.3240001
-1.8796732 -0.73004478 3.3240001
-1.8827443 -0.72389704 3.3240001
-1.8821778 -0.71753335 3.3230002
-1.8785422 -0.71117342 3.3220003
-1.8774112 -0.70460486 3.3200002
-1.8835516 -0.69232416 3.3200002
-1.8796732 -0.69930607 3.3240001
-1.8825006 -0.68804395 3.3290002
-1.8779768 -0.68024832 3.3210001
-1.8735255 -0.66241956 3.3240001
-1.9265618 -1.4237136 3.336
-1.9287809 -1.4138231 3.3345003
-1.926178 -1.4026763 3.3300002
-1.9252084 -1.3941164 3.3390002
-1.9234786 -1.3836099 3.3360002
-1.926178 -1.3718822 3.3300002
-1.9334974 -1.360381 3.3320003
-1.9290701 -1.367774 3.3350003
-1.9290701 -1.3492697 3.3350003
-1.9267564 -1.3230087 3.3310001
-1.930227 -1.3068763 3.3370001
-1.9234786 -1.3003148 3.3360002
-1.9217489 -1.292981 3.3330002
-1.9161593 -1.2872027 3.3340001
-1.914435 -1.2798837 3.3310001
-1.9138603 -1.2487054 3.3300002
-1.9094201 -1.2344184 3.3330002
-1.9138603 -1.22407 3.3300002
-1.9122845 -1.2023162 3.3380001
-1.914435 -1.1997948 3.3310001
-1.9105659 -1.1703951 3.3350003
-1.9099931 -1.1762104 3.3340001
-1.9161592 -1.1669583 3.3340001
-1.9150097 -1.1508546 3.3320003
-1.9094201 -1.1388712 3.3330002
-1.9077015 -1.1039726 3.3300002
-1.9099931 -1.0960493 3.3340001
-1.9077441 -1.0856632 3.3336668
-1.9032557 -1.0772274 3.3330002
-1.9015427 -1.0516224 3.3300002
-1.9111388 -1.0411773 3.3360002
-1.9064521 -1.0449748 3.3350003
-1.9111388 -1.0350074 3.3360002
-1.9062629 -1.0263727 3.3346665
-1.8987989 -0.95479816 3.3360002
-1.8944334 -0.94490623 3.33375
-1.8965513 -0.93413812 3.3356667
-1.9015427 -0.90996897 3.3300002
-1.8965222 -0.89202791 3.3320003
-1.891778 -0.88344693 3.3345003
-1.894331 -0.87537545 3.3390002
-1.9015427 -0.86069822 3.3300002
-1.8973759 -0.86468327 3.3335001
-1.9015427 -0.85453939 3.3300002
-1.899368 -0.85633576 3.3370001
-1.8959529 -0.84863532 3.3310001
-1.890927 -0.83681607 3.3330002
-1.8875901 -0.82572418 3.3380001
-1.8850453 -0.76604283 3.3335001
-1.8794436 -0.75393641 3.3345003
-1.8802891 -0.74502021 3.3360002
-1.8814163 -0.73929322 3.3380001
-1.8819799 -0.71481276 3.3390002
-1.8830661 -0.69440949 3.3300002
-1.8808527 -0.67118204 3.3370001
-1.9258592 -1.4246774 3.3455002
-1.9280913 -1.4147583 3.3440001
-1.9266498 -1.4044309 3.3415003
-1.9309742 -1.3735157 3.3490002
-1.9269382 -1.3768259 3.3420002
-1.9331192 -1.3644638 3.3420002
-1.9319624 -1.3574699 3.3400002
-1.9280913 -1.3405415 3.3440001
-1.9309742 -1.3301579 3.3490002
-1.9269382 -1.3335587 3.3420002
-1.9319624 -1.320406 3.3400002
-1.9331192 -1.3150156 3.3420002
-1.9196076 -1.2956966 3.3400002
-1.9137707 -1.2547052 3.3460002
-1.9162947 -1.2481436 3.3450003
-1.9201823 -1.2219342 3.3410001
-1.9160082 -1.2263031 3.3445001
-1.9219066 -1.2137554 3.3440003
-1.9109647 -1.1960942 3.3465002
-1.9103937 -1.1833608 3.3455002
-1.9112502 -1.1746064 3.3470001
-1.9207572 -1.1604896 3.3420002
-1.9154354 -1.1641001 3.3435001
-1.9162947 -1.1553447 3.3450003
-1.9140033 -1.147784 3.3410001
-1.9078677 -1.1341977 3.3465002
-1.907824 -1.1261568 3.3410001
-1.9106792 -1.1185596 3.3460002
-1.9095371 -1.1117063 3.3440001
-1.9064411 -1.1055214 3.3440001
-1.9115357 -1.0973904 3.3475003
-1.9044907 -1.0628636 3.3460002
-1.9027832 -1.0557278 3.3430002
-1.9039216 -1.0470786 3.3450003
-1.9061705 -1.035839 3.3453333
-1.9033524 -1.0251199 3.3440001
-1.9039216 -1.0161457 3.3450003
-1.9053445 -1.0045249 3.3475003
-1.9033524 -0.99419624 3.3440001
-1.9013603 -0.98388875 3.3405001
-1.899437 -0.98300123 3.348
-1.9005399 -0.97578794 3.3445001
-1.9010979 -0.9652369 3.3436668
-1.8983023 -0.95766026 3.3460002
-1.8954656 -0.93151248 3.3410001
-1.9010756 -0.92505628 3.3400002
-1.897735 -0.92334688 3.3450003
-1.9026159 -0.91649324 3.3463335
-1.9022141 -0.90397847 3.342
-1.899437 -0.90250349 3.348
-1.8954656 -0.89443731 3.3410001
-1.8983023 -0.87102216 3.3460002
-1.899437 -0.86535066 3.348
-1.9000043 -0.85941517 3.3490002
-1.8971677 -0.85194731 3.3440001
-1.8954656 -0.84500384 3.3410001
-1.8909829 -0.8333931 3.3440001
-1.8926793 -0.82176024 3.3470001
-1.8926793 -0.7784282 3.3470001
-1.8853618 -0.7717765 3.3450003
-1.8831073 -0.76467443 3.3410001
-1.8825437 -0.73355883 3.3400002
-1.8825437 -0.72429287 3.3400002
-1.8842345 -0.70639288 3.3430002
-1.8876164 -0.69527459 3.3490002
-1.8859254 -0.68536913 3.3460002
-1.8831073 -0.67816579 3.3410001
-1.8752391 -0.6663056 3.3435001
-1.9293782 -1.4264671 3.3570001
-1.9293782 -1.3954231 3.3570001
-1.9288033 -1.3888005 3.3560002
-1.93674 -1.3589796 3.3590002
-1.9315509 -1.3491426 3.3500001
-1.9276539 -1.3445503 3.3540001
-1.9273665 -1.335045 3.3535004
-1.9344337 -1.3139257 3.3550003
-1.9245514 -1.3042283 3.3540001
-1.9203049 -1.2941523 3.3520002
-1.9163895 -1.2956966 3.3560002
-1.9203049 -1.2817532 3.3520002
-1.9178843 -1.2870351 3.3550003
-1.9220235 -1.2735918 3.355
-1.9231694 -1.2650387 3.3570001
-1.9141054 -1.2507555 3.3520002
-1.9141054 -1.244556 3.3520002
-1.9163895 -1.2367289 3.3560002
-1.9208778 -1.2201217 3.3530002
-1.9191592 -1.2128342 3.3500001
-1.9146764 -1.207719 3.3530002
-1.9079058 -1.1825607 3.3520002
-1.9090443 -1.1739604 3.3540001
-1.9129882 -1.1666068 3.353667
-1.916104 -1.1558689 3.3555002
-1.9146764 -1.1457051 3.3530002
-1.9090443 -1.1398436 3.3540001
-1.9073367 -1.1233289 3.3510003
-1.9073367 -1.1140333 3.3510001
-1.9073367 -1.101638 3.3510001
-1.9096134 -1.0936453 3.3550003
-1.9090443 -1.0840145 3.3540001
-1.9073367 -1.0737493 3.3510003
-1.9056777 -1.0545682 3.3590002
-1.9042593 -1.044471 3.3565001
-1.9051104 -1.0356224 3.3580003
-1.9056777 -1.0110809 3.3590002
-1.9051104 -1.0045692 3.3580003
-1.9039756 -0.99776393 3.3560002
-1.9005717 -0.98978424 3.3500001
-1.901139 -0.97148669 3.3510001
-1.8983343 -0.9545998 3.3570001
-1.8955067 -0.94387865 3.3520002
-1.8972032 -0.9354158 3.3550003
-1.8983343 -0.9266603 3.3570001
-1.8988997 -0.91762036 3.3580003
-1.9005717 -0.90923846 3.3500001
-1.8977687 -0.89224613 3.3560002
-1.8960723 -0.88524717 3.3530002
-1.8977687 -0.87983227 3.3560002
-1.8983343 -0.86146808 3.3570001
-1.8972032 -0.8547498 3.3550003
-1.8969204 -0.84531754 3.3545003
-1.8915617 -0.83638376 3.3560002
-1.8904345 -0.82968211 3.3540001
-1.897486 -0.81453764 3.3555002
-1.8949453 -0.78684556 3.3565001
-1.8898709 -0.77982366 3.3530002
-1.8859167 -0.75591886 3.3570001
-1.8859167 -0.74660569 3.3570001
-1.8859167 -0.73418814 3.3570001
-1.8859167 -0.72487497 3.3570001
-1.8864784 -0.71577406 3.3580003
-1.8870403 -0.6818195 3.3590002
-1.8842313 -0.67460132 3.3540001
-1.8797079 -0.67520475 3.3570001
-1.9345508 -1.4240658 3.3660002
-1.9243541 -1.4296539 3.3645
-1.9336886 -1.4140978 3.3645
-1.931677 -1.403302 3.3610001
-1.929471 -1.3937664 3.3680003
-1.9339759 -1.3831859 3.3650002
-1.9370849 -1.3738542 3.3650002
-1.9376607 -1.3649216 3.3660002
-1.9322518 -1.3539753 3.3620002
-1.9351255 -1.3310798 3.3670001
-1.9328265 -1.3170588 3.3630002
-1.9283253 -1.3120083 3.3660002
-1.9186736 -1.3034552 3.3600001
-1.9215288 -1.2805005 3.3650002
-1.923242 -1.275413 3.3680003
-1.9226708 -1.2314434 3.3670001
-1.923242 -1.2255801 3.3680003
-1.9203868 -1.2175407 3.3630002
-1.9170128 -1.2068927 3.3680003
-1.9164436 -1.1940798 3.3670001
-1.911351 -1.1760962 3.3690002
-1.9130285 -1.160871 3.3610001
-1.9141669 -1.155342 3.3630002
-1.9130285 -1.1484387 3.3610001
-1.909649 -1.1345837 3.3660002
-1.9102163 -1.1131252 3.3670001
-1.9107836 -1.1041112 3.368
-1.911351 -1.0701697 3.3690002
-1.9062498 -1.0628333 3.3655002
-1.9039891 -1.0570798 3.3670001
-1.9017271 -1.0464941 3.3630002
-1.9049295 -1.0336326 3.365
-1.9107836 -1.0200191 3.3680003
-1.9085144 -1.0250293 3.3640001
-1.90512 -0.98916698 3.3690002
-1.90512 -0.96424311 3.3690002
-1.9005961 -0.91222399 3.3610001
-1.8966346 -0.91330963 3.3650002
-1.9017271 -0.90654695 3.3630002
-1.8986073 -0.90491408 3.3685002
-1.9005961 -0.89979166 3.3610001
-1.8977618 -0.89517063 3.3670001
-1.8963528 -0.88517249 3.3645
-1.9000306 -0.87466663 3.3600001
-1.8971982 -0.87311578 3.3660002
-1.9000306 -0.86845231 3.3600001
-1.8938164 -0.86223793 3.3600001
-1.8949436 -0.85342228 3.362
-1.89438 -0.84384602 3.3610001
-1.8957891 -0.8226977 3.3635001
-1.8920963 -0.78331232 3.3680003
-1.8898492 -0.7761603 3.3640001
-1.8890065 -0.76648712 3.3625002
-1.8855872 -0.75517046 3.3675003
-1.8841873 -0.74527311 3.3650002
-1.8844674 -0.73604763 3.3655002
-1.8844674 -0.72359765 3.3655002
-1.8853072 -0.7145797 3.3670001
-1.8909727 -0.70502841 3.3660002
-1.8915346 -0.69589788 3.3670001
-1.8904109 -0.68926096 3.3650002
-1.8839074 -0.68605042 3.3645
-1.9334812 -1.4247515 3.375
-1.9334812 -1.4153894 3.3750002
-1.9311898 -1.4043608 3.3710003
-1.9329083 -1.3900092 3.3740001
-1.9357728 -1.3858196 3.3790002
-1.9385738 -1.370882 3.3730001
-1.9346271 -1.3600162 3.3770001
-1.9306169 -1.3509643 3.3700001
-1.9306169 -1.3447315 3.3700001
-1.9329083 -1.3369663 3.3740001
-1.9351654 -1.3238957 3.3725002
-1.9289522 -1.3229332 3.3780003
-1.9235444 -1.3120027 3.3740001
-1.9187204 -1.3014878 3.3710001
-1.9209971 -1.290548 3.3750002
-1.9181511 -1.2948689 3.3700001
-1.925526 -1.2706913 3.3720002
-1.9209971 -1.2530956 3.3750002
-1.9164543 -1.2445253 3.3743334
-1.9232738 -1.2358323 3.3790002
-1.9192896 -1.2395086 3.3720002
-1.9215662 -1.2222472 3.3760002
-1.9175878 -1.215463 3.3745003
-1.9181511 -1.2013766 3.3700001
-1.9153223 -1.1941506 3.3760002
-1.9119184 -1.1826781 3.3700001
-1.9119184 -1.1702125 3.3700001
-1.9136204 -1.1650158 3.3730001
-1.9153223 -1.1566861 3.3760002
-1.9119184 -1.1452812 3.3700001
-1.9124857 -1.1237997 3.3710001
-1.9102094 -1.1167618 3.3780003
-1.9085129 -1.106406 3.375
-1.913053 -1.0929486 3.3720002
-1.9096439 -1.0976939 3.3770001
-1.9153223 -1.0848811 3.3760002
-1.914755 -1.0783176 3.3750002
-1.9090785 -1.0723932 3.3760002
-1.9102094 -1.0230476 3.3780003
-1.9079474 -1.0280764 3.3740001
-1.9107749 -1.0108515 3.3790002
-1.9102094 -1.0043046 3.3780003
-1.906251 -0.99598885 3.3710001
-1.9068165 -0.98381132 3.3720002
-1.9102094 -0.97931421 3.3780003
-1.9079474 -0.97191435 3.3740001
-1.9028345 -0.95375872 3.3760002
-1.9014254 -0.94369209 3.3735003
-1.9039618 -0.93558091 3.3780003
-1.9028345 -0.92566204 3.3760002
-1.897995 -0.86386067 3.3785002
-1.8977141 -0.84186661 3.3780003
-1.8977141 -0.83561897 3.3780003
-1.8994527 -0.81494159 3.3700001
-1.8935008 -0.79324484 3.3705001
-1.8886669 -0.78447515 3.3730001
-1.8889468 -0.77523297 3.3735001
-1.887547 -0.765306 3.3710001
-1.8889468 -0.70659888 3.3735003
-1.8886669 -0.69713795 3.3730001
-1.9306654 -1.4304119 3.381
-1.9352336 -1.4275286 3.3890002
-1.9392101 -1.3820198 3.3850002
-1.9392101 -1.3757592 3.3850002
-1.9369354 -1.3669715 3.3865001
-1.9332349 -1.3540459 3.3855
-1.9346485 -1.3309516 3.3825002
-1.9283965 -1.3205835 3.3880002
-1.9266889 -1.2881113 3.3850002
-1.921563 -1.2575511 3.3870001
-1.9204284 -1.2317662 3.3850002
-1.9187263 -1.2369295 3.3820002
-1.923843 -1.2299467 3.3800001
-1.918159 -1.2240574 3.381
-1.918159 -1.2115512 3.381
-1.9175917 -1.2049415 3.3800001
-1.9147333 -1.1820308 3.3860002
-1.9147333 -1.1757684 3.3860002
-1.9150161 -1.1665474 3.3865001
-1.9144505 -1.15368 3.3855002
-1.9130368 -1.1434423 3.3830001
-1.9124713 -1.1368493 3.3820002
-1.9119059 -1.1240067 3.381
-1.9119059 -1.092741 3.381
-1.9130368 -1.084002 3.3830001
-1.9090345 -1.0664918 3.3870001
-1.9062164 -1.055534 3.3820002
-1.9062164 -1.0461507 3.382
-1.9095981 -1.0386083 3.3880002
-1.9119059 -1.0177029 3.381
-1.9073436 -0.96227753 3.3840001
-1.9030511 -0.95387638 3.3875003
-1.9027703 -0.94433784 3.3870001
-1.9016466 -0.92499852 3.3850002
-1.9016466 -0.91247737 3.3850002
-1.8999614 -0.91792369 3.3820002
-1.9038938 -0.90728766 3.3890002
-1.903332 -0.89448774 3.3880002
-1.9005231 -0.8869108 3.3830001
-1.8988377 -0.87674731 3.3800001
-1.8999614 -0.8553735 3.3820002
-1.8988377 -0.84861636 3.3800001
-1.9010849 -0.83084452 3.3840001
-1.8948262 -0.79329222 3.3840001
-1.8907998 -0.78796381 3.3880002
-1.8896836 -0.74679297 3.3860002
-1.8905208 -0.73459291 3.3875003
-1.8907998 -0.72530264 3.3880002
-1.8907998 -0.71903652 3.3880002
-1.8863351 -0.69233346 3.3800001
-1.8823087 -0.64621425 3.3840003
-1.878822 -0.64403319 3.3890002
-1.940944 -1.4254544 3.3990002
-1.9306732 -1.4287922 3.3920002
-1.940944 -1.4128815 3.3990002
-1.9398019 -1.3743535 3.3970001
-1.9318116 -1.3637249 3.3940001
-1.9323808 -1.3547072 3.3950002
-1.935232 -1.3450906 3.3945003
-1.9340883 -1.3370506 3.3980002
-1.9312425 -1.3288077 3.3930001
-1.9255344 -1.3103677 3.3940001
-1.9232651 -1.3025535 3.3900001
-1.9249671 -1.2974309 3.3930001
-1.9346576 -1.2808659 3.3990002
-1.9295349 -1.2837441 3.3900001
-1.9175607 -1.2527646 3.3910003
-1.9189744 -1.2442724 3.3935003
-1.9209536 -1.2361329 3.3970001
-1.9209536 -1.2298502 3.3970001
-1.9215192 -1.1987891 3.3980002
-1.9157982 -1.1928555 3.3990002
-1.9149876 -1.1872602 3.3920002
-1.9126981 -1.175236 3.3935003
-1.9107255 -1.1646177 3.3900001
-1.9112891 -1.1555529 3.3910003
-1.9124163 -1.1436856 3.3930001
-1.9166794 -1.1349401 3.3950002
-1.9152344 -1.1170892 3.3980002
-1.9126981 -1.106195 3.3935001
-1.9149526 -1.0949315 3.3975
-1.9152344 -1.0856662 3.3980002
-1.91298 -1.0781109 3.3940001
-1.906141 -1.043278 3.3930001
-1.9135436 -1.0344752 3.3950002
-1.9155164 -1.0261129 3.3985002
-1.9141072 -1.0159371 3.3960001
-1.9121345 -1.0054808 3.3925002
-1.9083881 -1.0036708 3.3970001
-1.9118527 -0.9927814 3.3920002
-1.9095117 -0.99797523 3.3990002
-1.9141073 -0.97511399 3.3960001
-1.9078263 -0.96568984 3.3960001
-1.9050174 -0.93604553 3.3910003
-1.9044557 -0.90128559 3.3900001
-1.9021053 -0.88429838 3.3970001
-1.9015454 -0.87775713 3.3960001
-1.9026653 -0.85313565 3.3980002
-1.9009855 -0.84610337 3.3950002
-1.9004256 -0.83957696 3.3940001
-1.9058601 -0.8235184 3.3925002
-1.8924741 -0.7949332 3.3910003
-1.8924741 -0.78238988 3.3910003
-1.8949854 -0.77400672 3.3955002
-1.8941483 -0.7642504 3.3940001
-1.891916 -0.7570799 3.3900001
-1.8930322 -0.71361196 3.3920002
-1.8941483 -0.70461786 3.3940001
-1.8804852 -0.65087682 3.3920002
-1.941515 -1.4195855 3.4000001
-1.9423716 -1.4044826 3.4015002
-1.9443702 -1.3933332 3.4050002
-1.942086 -1.382262 3.4010003
-1.9380726 -1.3775902 3.4050002
-1.9340444 -1.3287688 3.4090002
-1.930073 -1.3197484 3.4020002
-1.927174 -1.3157729 3.4080002
-1.9232156 -1.3036361 3.401
-1.9329097 -1.2901818 3.4070001
-1.9295057 -1.2941998 3.4010003
-1.9329097 -1.2838806 3.4070001
-1.9383571 -1.2738671 3.4055002
-1.9277395 -1.2657194 3.4090002
-1.9208709 -1.2527418 3.4080002
-1.9217606 -1.2260886 3.4040003
-1.9240638 -1.2161086 3.4025002
-1.9220433 -1.2042273 3.4045002
-1.914006 -1.170458 3.4070001
-1.914006 -1.1641567 3.4070001
-1.9197435 -1.132318 3.4060001
-1.9191799 -1.125688 3.4050002
-1.9134442 -1.0630245 3.4060001
-1.9111971 -1.0554842 3.4020002
-1.9126015 -1.0342193 3.4045
-1.9134442 -1.0252281 3.4060001
-1.9103544 -1.0141392 3.4005003
-1.9106352 -0.99227232 3.4010003
-1.9146045 -0.98484874 3.4043334
-1.9123206 -0.97426045 3.404
-1.9088246 -0.93155682 3.4090002
-1.9060249 -0.92389482 3.404
-1.9077047 -0.91525531 3.4070001
-1.9088246 -0.90633702 3.4090002
-1.9052297 -0.89512902 3.4063337
-1.9002873 -0.88323212 3.4050002
-1.9025943 -0.87340087 3.4035001
-1.9033147 -0.86581117 3.4066668
-1.9020362 -0.8574096 3.4025002
-1.8980548 -0.84445453 3.401
-1.9057449 -0.8324815 3.4035001
-1.8991711 -0.83550942 3.4030001
-1.898613 -0.80380386 3.4020002
-1.8956585 -0.79261529 3.4080002
-1.8962147 -0.74556071 3.4090002
-1.8962147 -0.7361033 3.4090002
-1.8959366 -0.72653884 3.4085002
-1.8813946 -0.65337133 3.4050002
-1.9414877 -1.4115609 3.4110003
-1.9437644 -1.4037421 3.4150002
-1.9437644 -1.394268 3.4150002
-1.9420569 -1.3867328 3.4120002
-1.9382994 -1.3538096 3.4165001
-1.9345713 -1.3439364 3.4155002
-1.9334239 -1.3354477 3.4153335
-1.9305669 -1.3244036 3.4140003
