# .PCD v0.7 - Point Cloud Data file format
VERSION 0.7
FIELDS x y z
SIZE 4 4 4
TYPE F F F
COUNT 1 1 1
WIDTH 1525
HEIGHT 1
VIEWPOINT 0 0 0 1 0 0 0
POINTS 1525
DATA ascii
0.67572677 -2.8122571 6.0640001
0.68716872 -2.8131845 6.0660005
0.69861805 -2.8141119 6.0680003
0.67594963 -2.8019655 6.0660005
0.68739527 -2.8028893 6.0680003
0.60848463 -2.79566 6.0645003
0.61934328 -2.7996559 6.0610003
0.62016076 -2.7921264 6.0690002
0.63055313 -2.7996559 6.0610003
0.59702212 -2.7889061 6.0620003
0.48502526 -2.7054853 6.0635004
0.37297294 -2.6444623 6.0650001
0.2830016 -2.6310742 6.0600004
0.35059628 -2.6336792 6.0660005
0.26084363 -2.6224601 6.0660005
0.27188331 -2.6207309 6.0620003
0.2830483 -2.6202986 6.0610003
0.29435521 -2.6211631 6.0630002
0.30556875 -2.6211631 6.0630002
0.35076967 -2.6237571 6.0690002
0.24958339 -2.6108105 6.0650001
0.2832351 -2.6108105 6.0650001
0.29464653 -2.6125324 6.0690002
0.23828755 -2.6099496 6.0630002
0.26077914 -2.6049848 6.0645003
0.27183846 -2.6090887 6.0610003
0.2833752 -2.6008792 6.0680003
0.27201787 -2.5995934 6.0650001
0.27210757 -2.5892296 6.0670004
0.2833752 -2.5896564 6.0680003
1.0812607 -3.0303383 6.0740004
1.0705552 -3.0205956 6.0770001
1.05827 -3.0176132 6.0710001
1.0019633 -3.0058897 6.0700002
1.0131897 -3.0058897 6.0700002
1.0589672 -3.0083656 6.0750003
0.97951025 -2.9946632 6.0700002
0.99155283 -2.9971299 6.0750003
1.0032837 -2.99861 6.0780001
1.0146919 -2.9991033 6.0790005
1.0249225 -2.9961433 6.0730004
1.0468692 -2.9946632 6.0700002
1.0594902 -2.99861 6.0780001
0.98015577 -2.9854028 6.0740004
0.99220574 -2.9878602 6.0790005
1.0257664 -2.9873688 6.0780001
1.0364958 -2.9858942 6.0750003
1.0477315 -2.9858942 6.0750003
0.98031712 -2.9746585 6.0750003
1.0259351 -2.9766171 6.0790005
1.036837 -2.9756379 6.0770001
0.98047847 -2.9639106 6.0760002
0.98096257 -2.9541309 6.0790005
0.91275251 -2.9179995 6.0740004
0.9242906 -2.9189603 6.0760002
0.93568218 -2.9194407 6.0770001
0.90137017 -2.906287 6.0730004
0.89043128 -2.8960085 6.0750003
0.8450709 -2.8833482 6.0720005
0.85672414 -2.8847728 6.0750003
0.8682456 -2.8857224 6.0770001
0.87977445 -2.8866723 6.0790005
0.84576672 -2.8744831 6.0770001
0.83425266 -2.8623013 6.0750003
0.76658589 -2.850127 6.0730004
0.77858633 -2.8529427 6.0790005
0.78982949 -2.8529427 6.0790005
0.80041373 -2.8505962 6.0740004
0.76696455 -2.8402972 6.0760002
0.74375421 -2.8262661 6.0700002
0.75535381 -2.8276629 6.0730004
0.71007478 -2.8150396 6.0700002
0.7215389 -2.8159671 6.0720005
0.73313111 -2.8173583 6.0750003
0.74461192 -2.8182859 6.0770001
0.75610012 -2.8192134 6.0790005
0.69884831 -2.803813 6.0700002
0.71042573 -2.8051989 6.0730004
0.7218954 -2.8061225 6.0750003
0.73349321 -2.8075085 6.0780001
0.63148946 -2.7925866 6.0700002
0.64282179 -2.7930467 6.0710001
0.65415788 -2.7935066 6.0720005
0.66560721 -2.7944269 6.0740004
0.67706394 -2.795347 6.0760002
0.68841481 -2.7958071 6.0770001
0.69976938 -2.796267 6.0780001
0.62118262 -2.7854841 6.0790005
0.62118262 -2.7517548 6.0790005
0.55354172 -2.7171311 6.0770001
0.54230225 -2.7058916 6.0770001
0.41839302 -2.6479504 6.0730004
0.42983729 -2.6492584 6.0760002
0.3621136 -2.63585 6.0710001
0.37352639 -2.6371527 6.0740004
0.38476029 -2.6371527 6.0740004
0.39605936 -2.6375868 6.0750003
0.40736213 -2.638021 6.0760002
0.41873747 -2.6388893 6.0780001
0.36229253 -2.6259186 6.0740004
0.3737109 -2.6272156 6.0770001
0.38501367 -2.6276479 6.0780001
0.39625493 -2.6276479 6.0780001
0.30592155 -2.612963 6.0700002
0.35111645 -2.6151154 6.0750003
0.36259076 -2.6168373 6.0790005
0.24978915 -2.6017365 6.0700002
0.29469508 -2.6017365 6.0700002
0.30607274 -2.6030223 6.0730004
0.31725252 -2.6025937 6.0720005
0.33988073 -2.6038795 6.0750003
0.24995376 -2.592217 6.0740004
0.26101562 -2.5905099 6.0700002
0.34004855 -2.593924 6.0780001
0.27255607 -2.582258 6.0770001
0.28365538 -2.5809832 6.0740004
0.31761825 -2.5831077 6.0790005
0.29513201 -2.5718646 6.0790005
1.0942931 -3.0353272 6.0840001
1.140239 -3.0378218 6.0890002
1.1850908 -3.037323 6.0880003
1.0832188 -3.0245719 6.0850005
1.07126 -3.011337 6.0810003
1.0837529 -3.0148034 6.0880003
1.1623802 -3.0143082 6.0870004
1.071436 -3.0005834 6.0820003
1.0717884 -2.9903178 6.0840001
1.003944 -2.9893348 6.0820003
1.0151927 -2.9893348 6.0820003
1.0598388 -2.9883518 6.0800004
1.0723169 -2.9805343 6.0870004
0.99253213 -2.9775965 6.0810003
1.0046868 -2.9746587 6.0865002
1.0153596 -2.9785757 6.0830002
1.0601875 -2.9780862 6.0820003
0.99318504 -2.9683008 6.0850005
1.0160273 -2.9692764 6.0870004
1.0261039 -2.9658618 6.0800004
1.061059 -2.9692764 6.0870004
1.0163611 -2.9589906 6.0890002
1.0261039 -2.9546168 6.0800004
0.98128533 -2.943856 6.0810003
0.98176944 -2.934056 6.0840001
0.97003853 -2.9213624 6.0810003
0.9820922 -2.9237645 6.0860004
0.91380441 -2.9101155 6.0810003
0.92535543 -2.9110727 6.0830002
0.93645203 -2.910594 6.0820003
0.99383789 -2.913944 6.0890002
0.92596394 -2.9017289 6.0870004
0.90322542 -2.8953831 6.0855002
0.92626816 -2.8914208 6.0890002
0.89204359 -2.8843653 6.0860004
0.85757029 -2.876375 6.0810003
0.86895996 -2.876848 6.0820003
0.88049811 -2.877794 6.0840001
0.84618425 -2.8646572 6.0800004
0.85771132 -2.8655994 6.0820003
0.86924571 -2.8665416 6.0840001
0.88107699 -2.8684263 6.0880003
0.83521396 -2.8543508 6.0820003
0.84660178 -2.85482 6.0830002
0.88107699 -2.8571665 6.0880003
0.7789706 -2.843102 6.0820003
0.79034919 -2.8435695 6.0830002
0.80120438 -2.8421671 6.0800004
0.81244934 -2.8421671 6.0800004
0.82423621 -2.8440371 6.0840001
0.83576328 -2.8449719 6.0860004
0.84701931 -2.8449719 6.0860004
0.76772189 -2.8318534 6.0820003
0.76847929 -2.8233874 6.0880003
0.74510205 -2.8088942 6.0810003
0.75659764 -2.809818 6.0830002
0.71124458 -2.7971873 6.0800004
0.7224896 -2.7971873 6.0800004
0.73385525 -2.7976472 6.0810003
0.74571466 -2.7943168 6.0860004
0.75697076 -2.7999475 6.0860004
0.63263381 -2.7864006 6.0810003
0.65566611 -2.7886915 6.0860004
0.66692221 -2.7886915 6.0860004
0.67784399 -2.7873168 6.0830002
0.68920779 -2.787775 6.0840001
0.70046014 -2.787775 6.0840001
0.71171254 -2.787775 6.0840001
0.72308373 -2.7882333 6.0850005
0.73445863 -2.7886915 6.0860004
0.62169355 -2.7765226 6.0840001
0.63304996 -2.7769792 6.0850005
0.67795539 -2.7765226 6.0840001
0.68920779 -2.7765226 6.0840001
0.70057529 -2.7769792 6.0850005
0.71206343 -2.7778919 6.0870004
0.72344023 -2.7783482 6.0880003
0.61054152 -2.7657249 6.0850005
0.62159133 -2.7648158 6.0830002
0.63263381 -2.7639067 6.0810003
0.6441983 -2.7652705 6.0840001
0.65598935 -2.7675428 6.0890002
0.66725093 -2.7675428 6.0890002
0.67784399 -2.7648158 6.0830002
0.61024052 -2.7531126 6.0820003
0.65512747 -2.75266 6.0810003
0.6668126 -2.7544706 6.0850005
0.5993858 -2.7436674 6.0860004
0.61003983 -2.7409623 6.0800004
0.59909034 -2.7310643 6.0830002
0.58774316 -2.7193666 6.0820003
0.59928727 -2.7150781 6.085
0.55427039 -2.7094538 6.0850005
0.5881297 -2.7098989 6.0860004
0.588323 -2.6995299 6.0880003
0.48634511 -2.6734924 6.0800004
0.49775377 -2.674372 6.0820003
0.50908613 -2.6748116 6.0830002
0.48658508 -2.6635611 6.0830002
0.49791744 -2.6639991 6.0840001
0.4754127 -2.6527467 6.0840001
0.48698506 -2.6544907 6.0880003
0.49832666 -2.6549268 6.0890002
0.44143781 -2.6401918 6.0810003
0.45290798 -2.6414943 6.0840001
0.4643892 -2.6427968 6.0870004
0.47580341 -2.6436651 6.0890002
0.43012026 -2.6397576 6.0800004
0.37407985 -2.6185591 6.0830002
0.38539374 -2.6189895 6.0840001
0.39651573 -2.6181285 6.0820003
0.35146323 -2.6064513 6.0810003
0.36288899 -2.6077371 6.0840001
0.37438735 -2.6094518 6.0880003
0.38564712 -2.6094518 6.0880003
0.39671129 -2.6081657 6.0850005
0.35169441 -2.5969117 6.0850005
0.36312759 -2.598192 6.0880003
0.26153165 -2.5843825 6.0820003
0.32896957 -2.5839577 6.0810003
0.34055209 -2.5865071 6.0870004
0.27287 -2.5739801 6.0840001
0.28393558 -2.5722878 6.0800004
0.30647594 -2.5727108 6.0810003
0.31793174 -2.574403 6.0850005
0.32934827 -2.5756724 6.0880003
0.25044757 -2.56357 6.0860004
0.26170364 -2.56357 6.0860004
0.27287 -2.5627277 6.0840001
0.28402898 -2.5618851 6.0820003
0.29527766 -2.5618851 6.0820003
0.31803626 -2.5639913 6.0870004
0.2391129 -2.5514753 6.0840001
0.25032413 -2.5510559 6.0830002
0.26161763 -2.5514753 6.0840001
0.27291486 -2.5518947 6.0850005
0.28426248 -2.5527334 6.0870004
0.29561752 -2.5535722 6.0890002
0.22804779 -2.5423105 6.0890002
0.2391129 -2.5402229 6.0840001
0.26161763 -2.5402229 6.0840001
0.27295971 -2.5410581 6.0860004
0.28435588 -2.5423105 6.0890002
0.23923081 -2.5302176 6.0870004
0.25028297 -2.5393879 6.0820003
1.163717 -3.0403163 6.0940003
1.1293482 -3.0388196 6.0910001
1.1526352 -3.0351763 6.0950003
1.1744094 -3.0388196 6.0910001
1.2316453 -3.0354247 6.0955005
1.1631441 -3.0275543 6.0910001
1.0957321 -3.0167842 6.0920005
1.107181 -3.0172794 6.0930004
1.1182665 -3.0167842 6.0920005
1.130646 -3.0197554 6.0980005
1.0842869 -3.0050237 6.0910001
1.0962716 -3.0069971 6.0950003
1.1073626 -3.0065038 6.0940003
1.1186335 -3.0065038 6.0940003
1.1308315 -3.0089705 6.0990005
1.1528244 -3.0074904 6.0960002
1.0846429 -2.9947414 6.0930004
1.0966314 -2.9967074 6.0970001
1.1077261 -2.9962158 6.0960002
1.1195513 -2.9976904 6.0990005
1.1417371 -2.9967074 6.0970001
1.1524462 -2.9952328 6.0940003
1.084821 -2.9839621 6.0940003
1.0968113 -2.9859207 6.0980005
1.1530135 -2.985431 6.0970001
1.0730215 -2.9712276 6.0910001
1.085711 -2.9751301 6.0990005
1.1308315 -2.9751301 6.0990005
1.0057598 -2.9609344 6.0930004
1.0619305 -2.9604483 6.0920005
1.0740786 -2.9628782 6.0970001
0.99400115 -2.9594765 6.0900002
1.0059248 -2.9501493 6.0940003
1.0624535 -2.9506335 6.0950003
0.99432755 -2.9491811 6.0920005
1.016528 -2.9482129 6.0900002
1.0631508 -2.9412899 6.0990005
0.99432755 -2.9379139 6.0920005
1.0060899 -2.9393609 6.0950003
1.016695 -2.9374318 6.0910001
0.99400115 -2.9256861 6.0900002
1.0057598 -2.9271274 6.0930004
1.0171957 -2.9276078 6.0940003
1.0282978 -2.9271274 6.0930004
1.0516982 -2.9295292 6.0980005
1.0055947 -2.9153798 6.0920005
1.0173626 -2.9168153 6.0950003
1.0289729 -2.9177725 6.0970001
1.0405905 -2.9187295 6.0990005
0.91515684 -2.9031591 6.0900002
0.98354453 -2.9055426 6.0950003
0.99498045 -2.9060194 6.0960002
1.006255 -2.9060194 6.0960002
1.0180303 -2.9074495 6.0990005
0.91575795 -2.893795 6.0940003
0.9724313 -2.8947449 6.0960002
0.90419024 -2.8815782 6.0920005
0.91590822 -2.8829973 6.0950003
0.92687666 -2.8820512 6.0930004
0.96099907 -2.8829973 6.0950003
0.91620874 -2.8726668 6.0970001
0.89262992 -2.8693688 6.0900002
0.90404177 -2.8698399 6.0910001
0.91635901 -2.8618598 6.0980005
0.89262992 -2.8581052 6.0900002
0.90404177 -2.8585746 6.0910001
0.91635901 -2.8505814 6.0980005
0.89306962 -2.8482442 6.0930004
0.7799952 -2.8355782 6.0900002
0.79151857 -2.8365095 6.0920005
0.80331284 -2.838372 6.0960002
0.81485462 -2.8393033 6.0980005
0.82613289 -2.8393033 6.0980005
0.83741117 -2.8393033 6.0980005
0.84827191 -2.8379064 6.0950003
0.85898054 -2.8360438 6.0910001
0.78089178 -2.8275611 6.0970001
0.76885796 -2.8135133 6.0910001
0.76923668 -2.8036282 6.0940003
0.75771701 -2.7914407 6.0920005
0.66757971 -2.7801738 6.0920005
0.7351827 -2.7801738 6.0920005
0.7470625 -2.7824554 6.0970001
0.74718505 -2.7716336 6.0980005
0.7351827 -2.7689066 6.0920005
0.66736054 -2.7454705 6.0900002
0.67884684 -2.7463722 6.0920005
0.69022733 -2.7468231 6.0930004
0.7014963 -2.7468231 6.0930004
0.66801804 -2.7369008 6.0960002
0.70195687 -2.7373497 6.0970001
0.65685117 -2.714797 6.0970001
0.55472583 -2.7004166 6.0900002
0.58919269 -2.6922441 6.0970001
0.60046911 -2.6922441 6.0970001
0.61194623 -2.6931274 6.0990005
0.5548169 -2.6895947 6.0910001
0.58928937 -2.6814075 6.0980005
0.48730502 -2.6449676 6.0920005
0.49865401 -2.6454017 6.0930004
0.46461809 -2.6328359 6.0900002
0.47595969 -2.6332681 6.0910001
0.46499956 -2.6237247 6.0950003
0.4763504 -2.6241553 6.0960002
0.48786494 -2.6254466 6.0990005
0.46522844 -2.6137378 6.0980005
0.37451035 -2.5990455 6.0900002
0.38577381 -2.5990455 6.0900002
0.35215679 -2.5890567 6.0930004
0.36363459 -2.5849037 6.0965004
0.37481782 -2.5899067 6.0950003
0.38602719 -2.5894816 6.0940003
0.34094372 -2.5782108 6.0940003
0.35244578 -2.5799031 6.0980005
0.38628057 -2.5799031 6.0980005
0.32945645 -2.5652549 6.0900002
0.34099966 -2.5673611 6.0950003
0.35250357 -2.569046 6.0990005
0.30703032 -2.5548303 6.0920005
0.31845424 -2.5560884 6.0950003
0.32978106 -2.5565078 6.0960002
0.34122345 -2.557766 6.0990005
0.29576316 -2.5435631 6.0920005
0.30723193 -2.5452332 6.0960002
0.31866324 -2.5464859 6.0990005
0.2281976 -2.5327117 6.0930004
0.30733272 -2.53479 6.0980005
0.22827251 -2.5222702 6.0950003
0.23934871 -2.5202012 6.0900002
0.25065333 -2.5206149 6.0910001
0.26196164 -2.5210288 6.0920005
0.20576082 -2.5114095 6.0960002
0.21692859 -2.5101736 6.0930004
0.2281976 -2.5101736 6.0930004
0.23954523 -2.5109975 6.0950003
0.25098255 -2.5126455 6.0990005
0.23962383 -2.500545 6.0970001
0.20569332 -2.4993148 6.0940003
0.23970243 -2.4900851 6.0990005
0.20565957 -2.4876356 6.0930004
1.2444482 -3.0448065 6.1030002
1.2569703 -3.0477998 6.1090002
1.2908661 -3.0477998 6.1090002
1.3019515 -3.0473011 6.1080003
1.2908661 -3.0365012 6.1090002
1.1535808 -3.0207458 6.1000004
1.2333628 -3.0227265 6.1040001
1.2107841 -3.0114372 6.1040001
1.2228743 -3.0134108 6.1080003
1.1424861 -3.0099573 6.1010003
1.1994947 -3.0001478 6.1040001
1.1312023 -2.9986734 6.1010003
1.1084529 -2.9868999 6.1000004
1.120102 -2.9878793 6.1020002
1.1315731 -2.988369 6.1030002
1.1422988 -2.9868999 6.1000004
1.0975307 -2.9765935 6.1020002
1.1089981 -2.9770813 6.1030002
1.1202856 -2.9770813 6.1030002
1.1774944 -2.9790325 6.1070004
1.0862451 -2.965308 6.1020002
1.0977106 -2.9657938 6.1030002
1.1088164 -2.965308 6.1020002
1.120102 -2.965308 6.1020002
1.0747832 -2.9535382 6.1010003
1.086423 -2.9545064 6.1030002
1.0975307 -2.9540222 6.1020002
1.1086347 -2.9535382 6.1010003
1.120102 -2.9540222 6.1020002
1.0753117 -2.943701 6.1040001
1.086601 -2.943701 6.1040001
1.0977106 -2.9432189 6.1030002
1.1095432 -2.9446657 6.1060004
1.1210198 -2.945148 6.1070004
1.1325002 -2.9456301 6.1080003
1.0640223 -2.9324117 6.1040001
1.075664 -2.9333725 6.1060004
1.0869571 -2.9333725 6.1060004
1.0986099 -2.9343333 6.1080003
1.0525606 -2.9206438 6.1030002
1.064371 -2.9220796 6.1060004
1.0760164 -2.9230366 6.1080003
1.0873132 -2.9230366 6.1080003
1.0529054 -2.9103098 6.1050005
1.0647196 -2.9117398 6.1080003
1.0299855 -2.9093564 6.1030002
1.0414436 -2.909833 6.1040001
0.9849968 -2.8985436 6.1040001
0.99628615 -2.8985436 6.1040001
1.0072454 -2.897594 6.1020002
1.0183642 -2.897119 6.1010003
0.97322887 -2.8858352 6.1010003
0.98531955 -2.8882003 6.1060004
0.99677587 -2.8886733 6.1070004
1.0077406 -2.8877273 6.1050005
0.92809367 -2.8745515 6.1010003
0.93922347 -2.8740802 6.1000004
0.9506613 -2.8745515 6.1010003
0.96241808 -2.8759649 6.1040001
0.973867 -2.876436 6.1050005
0.98580366 -2.8783207 6.1090002
1.0080707 -2.8773785 6.1070004
0.92870212 -2.865145 6.1050005
0.93999332 -2.865145 6.1050005
0.95175201 -2.8665528 6.1080003
0.96320647 -2.867022 6.1090002
0.97434556 -2.8665528 6.1080003
0.92839789 -2.8529189 6.1030002
0.93999332 -2.8538537 6.1050005
0.95190781 -2.8557236 6.1090002
0.97450507 -2.8557236 6.1090002
0.8385098 -2.8317349 6.1060004
0.79255795 -2.8289526 6.1000004
0.83864707 -2.8209038 6.1070004
0.84896779 -2.8289526 6.1000004
0.78127599 -2.8176706 6.1000004
0.79307765 -2.8195181 6.1040001
0.80502594 -2.810529 6.1090002
0.82762313 -2.810529 6.1090002
0.84896779 -2.8176706 6.1000004
0.78140408 -2.8068485 6.1010003
0.79294777 -2.8077686 6.1030002
0.8385098 -2.8091488 6.1060004
0.84910697 -2.8068485 6.1010003
0.76999402 -2.7951066 6.1000004
0.78178829 -2.7969394 6.1040001
0.79307765 -2.7969394 6.1040001
0.80463058 -2.7978559 6.1060004
0.81605726 -2.7983141 6.1070004
0.82721668 -2.7978559 6.1060004
0.8387844 -2.7987723 6.1080003
0.85008121 -2.7987723 6.1080003
0.75883645 -2.784281 6.1010003
0.77087766 -2.787019 6.1070004
0.79372728 -2.7879319 6.1090002
0.80502594 -2.7879319 6.1090002
0.81632453 -2.7879319 6.1090002
0.82762313 -2.7879319 6.1090002
0.75883645 -2.7729971 6.1010003
0.77100384 -2.7761788 6.1080003
0.74767518 -2.762166 6.1020002
0.75933397 -2.7635241 6.1050005
0.7482878 -2.7531345 6.1070004
0.73614812 -2.7499788 6.1000004
0.74853289 -2.7427375 6.1090002
0.66922343 -2.7305446 6.1070004
0.6799612 -2.7395947 6.1020002
0.69102031 -2.7386968 6.1000004
0.70241737 -2.7278619 6.1010003
0.66933304 -2.7083981 6.1080003
0.69181323 -2.7079546 6.1070004
0.62332851 -2.6935689 6.1000004
0.63471448 -2.6940105 6.1010003
0.64621007 -2.6948936 6.1030002
0.60076457 -2.682287 6.1000004
0.61274886 -2.685365 6.1070004
0.62424815 -2.6862445 6.1090002
0.658144 -2.6862445 6.1090002
0.61254823 -2.6731942 6.1050005
0.62414598 -2.6745079 6.1080003
0.49930874 -2.6263075 6.1010003
0.47674111 -2.6150239 6.1010003
0.48834488 -2.6167383 6.1050005
0.49979979 -2.6175954 6.1070004
0.51109469 -2.6175954 6.1070004
0.48850489 -2.6063006 6.1070004
0.49996346 -2.6071541 6.1090002
0.37512529 -2.5807493 6.1000004
0.36384332 -2.5694673 6.1000004
0.3753098 -2.5650854 6.1030006
0.38656563 -2.5648746 6.1025004
0.35261917 -2.5586047 6.1010003
0.36402228 -2.5594435 6.1030002
0.37567875 -2.5506611 6.1090002
0.38697737 -2.5506611 6.1090002
0.33005154 -2.5473208 6.1010003
0.3415032 -2.5485735 6.1040001
0.35290816 -2.5494084 6.1060004
0.36426085 -2.5498259 6.1070004
0.31881997 -2.5364528 6.1020002
0.33021384 -2.5372841 6.1040001
0.34178293 -2.5393624 6.1090002
0.30743352 -2.5243394 6.1000004
0.31897673 -2.5264084 6.1050005
0.33037612 -2.5272362 6.1070004
0.26230565 -2.5130575 6.1000004
0.27358761 -2.5130575 6.1000004
0.28486958 -2.5130575 6.1000004
0.30773592 -2.5155294 6.1060004
0.25114715 -2.503006 6.1030002
0.26256368 -2.5042362 6.1060004
0.27390158 -2.5046463 6.1070004
0.28519648 -2.5046463 6.1070004
0.29653993 -2.5050564 6.1080003
0.25127059 -2.4929433 6.1060004
0.26269266 -2.494168 6.1090002
0.1948372 -2.4820566 6.1070004
0.23985964 -2.4804308 6.1030002
0.19480529 -2.4703572 6.1060004
0.194901 -2.4602721 6.1090002
0.20592959 -2.4683342 6.1010003
0.20609836 -2.459064 6.1060004
0.21742703 -2.4594667 6.1070004
1.2695146 -3.0507934 6.1150002
1.3262799 -3.0512922 6.1160002
1.3373728 -3.0507934 6.1150002
1.3721989 -3.052789 6.1190004
1.2586163 -3.0404778 6.1170001
1.2801958 -3.0492966 6.1120005
1.3141084 -3.0492966 6.1120005
1.3480208 -3.0492966 6.1120005
1.2462834 -3.0379925 6.1120005
1.270345 -3.0301547 6.1190004
1.2804053 -3.0384896 6.1130004
1.247099 -3.0286691 6.1160002
1.2797769 -3.0256979 6.1100001
1.2349793 -3.0153842 6.1120005
1.2466912 -3.0163708 6.1140003
1.2582048 -3.0168641 6.1150002
1.2693069 -3.0163708 6.1140003
1.2799864 -3.0148907 6.1110001
1.2125692 -3.0045714 6.1130004
1.2240756 -3.0050631 6.1140003
1.2347772 -3.0035884 6.1110001
1.2690994 -3.0045714 6.1130004
1.2816621 -3.0075204 6.1190004
1.2929791 -3.0075204 6.1190004
1.2006737 -2.9917965 6.1100001
1.2127676 -2.9937551 6.1140003
1.2238753 -2.9932654 6.1130004
1.1897626 -2.9814715 6.1120005
1.2020494 -2.9839106 6.1170001
1.212966 -2.982935 6.1150002
1.2238753 -2.9819593 6.1130004
1.1784585 -2.9701674 6.1120005
1.1907359 -2.9725974 6.1170001
1.2024423 -2.9735692 6.1190004
1.212966 -2.9716253 6.1150002
1.1907359 -2.9612839 6.1170001
1.2024423 -2.9622521 6.1190004
1.1784585 -2.9588633 6.1120005
1.1106335 -2.936255 6.1120005
1.1223048 -2.9372158 6.1140003
1.1339835 -2.9381766 6.1160002
1.1451077 -2.9376962 6.1150002
1.0989696 -2.9239938 6.1100001
1.110997 -2.9259079 6.1140003
1.122672 -2.9268651 6.1160002
1.1345397 -2.9283009 6.1190004
1.0768971 -2.9141233 6.1130004
1.0885593 -2.9150767 6.1150002
1.1000488 -2.9155536 6.1160002
1.1111786 -2.9150767 6.1150002
1.1345397 -2.9169836 6.1190004
1.0650682 -2.9013927 6.1100001
1.0779542 -2.9056666 6.1190004
1.0655912 -2.8915114 6.1130004
0.99726552 -2.8787918 6.1100001
0.98596501 -2.8674915 6.1100001
0.99742872 -2.8679607 6.1110001
0.96336412 -2.8561909 6.1100001
0.98612642 -2.8566585 6.1110001
0.99759191 -2.857126 6.1120005
0.95206368 -2.8448906 6.1100001
0.9639948 -2.8467529 6.1140003
0.97514313 -2.8462873 6.1130004
0.95237529 -2.8345175 6.1120005
0.96431011 -2.8363726 6.1160002
0.9756217 -2.8363726 6.1160002
0.95284277 -2.8245993 6.1150002
0.96478313 -2.8264468 6.1190004
0.8165918 -2.8114493 6.1110001
0.8960011 -2.8010633 6.1130004
0.90760392 -2.8019798 6.1150002
0.91921419 -2.8028963 6.1170001
0.85147291 -2.7920392 6.1180005
0.78255677 -2.7883883 6.1100001
0.83947104 -2.7897573 6.1130004
0.78268486 -2.7775424 6.1110001
0.79398715 -2.7775424 6.1110001
0.80555302 -2.7784512 6.1130004
0.81672543 -2.7779968 6.1120005
0.82789409 -2.7775424 6.1110001
0.8397457 -2.7793603 6.1150002
0.77138257 -2.7662399 6.1110001
0.78332525 -2.7685032 6.1160002
0.7950266 -2.7698612 6.1190004
0.82897788 -2.7698612 6.1190004
0.75995588 -2.7544868 6.1100001
0.77213991 -2.7576425 6.1170001
0.76020461 -2.7440844 6.1120005
0.6921531 -2.7318859 6.1100001
0.7493906 -2.7345686 6.1160002
0.66966176 -2.7210307 6.1110001
0.68140984 -2.7228117 6.1150002
0.6922664 -2.7210307 6.1110001
0.68096405 -2.7097285 6.1110001
0.63575482 -2.6871238 6.1110001
0.64705718 -2.6871238 6.1110001
0.63575482 -2.6758215 6.1110001
0.64705718 -2.6758215 6.1110001
0.57990682 -2.6223104 6.1180005
0.48882484 -2.5967054 6.1110001
0.50045449 -2.5984051 6.1150002
0.51184791 -2.59883 6.1160002
0.48898482 -2.5862491 6.1130004
0.50070006 -2.5883646 6.1180005
0.35319713 -2.5401938 6.1110001
0.36455908 -2.5406096 6.1120005
0.37592474 -2.5410252 6.1130004
0.38716739 -2.5406096 6.1120005
0.36467838 -2.530133 6.1140003
0.34189484 -2.5288916 6.1110001
0.35331273 -2.5297191 6.1130004
0.37592474 -2.5297191 6.1130004
0.31923798 -2.5171771 6.1100001
0.33059251 -2.5175891 6.1110001
0.34206268 -2.5188251 6.1140003
0.35337052 -2.5188251 6.1140003
0.36467838 -2.5188251 6.1140003
0.3079879 -2.5062869 6.1110001
0.31939471 -2.507107 6.1130004
0.33070073 -2.507107 6.1130004
0.27408099 -2.4949846 6.1110001
0.28542998 -2.4953928 6.1120005
0.2967827 -2.4958012 6.1130004
0.30818951 -2.4966178 6.1150002
0.31949919 -2.4966178 6.1150002
0.25147635 -2.4836822 6.1110001
0.26286468 -2.4844952 6.1130004
0.27430522 -2.4857144 6.1160002
0.28566349 -2.4861209 6.1170001
0.29702544 -2.4865272 6.1180005
0.30839109 -2.4869337 6.1190004
0.31965595 -2.4865272 6.1180005
0.24017406 -2.4723799 6.1110001
0.25168213 -2.4744029 6.1160002
0.26307967 -2.4752121 6.1180005
0.27443978 -2.4756167 6.1190004
0.22883429 -2.460675 6.1100001
0.24033126 -2.4626884 6.1150002
0.19509244 -2.4513788 6.1150002
0.20633464 -2.450577 6.1130004
0.21771185 -2.4513788 6.1150002
0.22909646 -2.4521806 6.1170001
0.20653716 -2.4416652 6.1190004
0.21785426 -2.4416652 6.1190004
1.385551 -3.0572791 6.1280003
1.4190888 -3.0562813 6.1260004
1.3724232 -3.0419688 6.1200004
1.2950922 -3.0010998 6.1290002
1.2822905 -2.9976723 6.1220002
1.3053621 -2.9986517 6.1240001
1.3064278 -2.9897645 6.1290002
1.271383 -2.9759989 6.1240001
1.2028353 -2.9518995 6.1210003
1.2143545 -2.9523818 6.1220002
1.2032284 -2.9415395 6.1230001
1.1462313 -2.9292579 6.1210003
1.1577413 -2.9297364 6.1220002
1.1692548 -2.9245501 6.1230001
1.1467931 -2.9193673 6.1240001
1.1583086 -2.9198439 6.1250005
1.0896274 -2.9066162 6.1210003
1.1009481 -2.9066162 6.1210003
1.1469804 -2.9085157 6.1250005
1.0783066 -2.8952954 6.1210003
1.0899833 -2.8962414 6.1230001
1.101128 -2.8957684 6.1220002
1.0783066 -2.8839746 6.1210003
1.0901613 -2.8853881 6.1240001
1.1023871 -2.8877439 6.1290002
1.1135409 -2.8872728 6.1280003
1.078835 -2.8740618 6.1240001
1.0910515 -2.8764083 6.1290002
1.0795397 -2.8646052 6.1280003
1.0333608 -2.8509436 6.1230001
1.044856 -2.8514092 6.1240001
1.022704 -2.8414741 6.1270003
0.97625977 -2.8269088 6.1200004
0.96525615 -2.81651 6.1220002
0.95440096 -2.8065619 6.1250005
0.86307025 -2.7929518 6.1200004
0.87453204 -2.7934082 6.1210003
0.88585287 -2.7934082 6.1210003
0.89717364 -2.7934082 6.1210003
0.90893972 -2.7947774 6.1240001
0.92041636 -2.7952337 6.1250005
0.93159246 -2.7947774 6.1240001
0.9430728 -2.7952337 6.1250005
0.85175127 -2.7816329 6.1200004
0.86363435 -2.7834511 6.1240001
0.87510353 -2.7839055 6.1250005
0.88628703 -2.7834511 6.1240001
0.89761341 -2.7834511 6.1240001
0.90923661 -2.7843599 6.1260004
0.9208672 -2.785269 6.1280003
0.93220091 -2.785269 6.1280003
0.94368863 -2.7857234 6.1290002
0.80687082 -2.771672 6.1230001
0.81806165 -2.7712193 6.1220002
0.84043235 -2.770314 6.1200004
0.85244715 -2.7725773 6.1250005
0.86433947 -2.7743878 6.1290002
0.83006173 -2.7621508 6.1270003
0.84125626 -2.7616999 6.1260004
0.85272551 -2.7621508 6.1270003
0.78486216 -2.7512677 6.1280003
0.83033264 -2.7517169 6.1290002
0.84153092 -2.7512677 6.1280003
0.85300386 -2.7517169 6.1290002
0.77314973 -2.7442532 6.125
0.76119965 -2.7363572 6.1200004
0.75049335 -2.7272644 6.1250005
0.75098348 -2.71771 6.1290002
0.73892379 -2.7037249 6.1230001
0.72736162 -2.6915209 6.1210003
0.72783697 -2.6819518 6.1250005
0.72831225 -2.6723676 6.1290002
0.59199518 -2.6257393 6.1260004
0.60312825 -2.624882 6.1240001
0.58057034 -2.6139824 6.1250005
0.5920918 -2.614836 6.1270003
0.60332519 -2.6144092 6.1260004
0.5579139 -2.6026542 6.1250005
0.5922851 -2.6043539 6.1290002
0.5236727 -2.5900569 6.1220002
0.53508276 -2.5904799 6.1230001
0.54649645 -2.590903 6.1240001
0.51226634 -2.5896337 6.1210003
0.5353449 -2.5804191 6.1260004
0.52384377 -2.5795767 6.1240001
0.28580359 -2.4760211 6.1200004
0.29717109 -2.4764256 6.1210003
0.30844149 -2.4760211 6.1200004
0.25188789 -2.4651048 6.1210003
0.26325169 -2.4655077 6.1220002
0.27457434 -2.4655077 6.1220002
0.28589699 -2.4655077 6.1220002
0.29721963 -2.4655077 6.1220002
0.24064568 -2.4545858 6.1230001
0.25217593 -2.4565902 6.1280003
0.2635527 -2.4569912 6.1290002
0.27479857 -2.4561894 6.1270003
0.28603709 -2.4553876 6.1250005
0.19525196 -2.4420643 6.1200004
0.22928372 -2.4428623 6.1220002
0.24084218 -2.4452565 6.1280003
0.19534767 -2.431937 6.1230001
0.20663841 -2.4315398 6.1220002
0.21796107 -2.4315398 6.1220002
0.22935863 -2.4323342 6.1240001
0.24088149 -2.43432 6.1290002
0.18408327 -2.4214029 6.1250005
0.19541147 -2.4214029 6.1250005
0.20670593 -2.4210076 6.1240001
0.21799667 -2.4206123 6.1230001
0.24084218 -2.4225891 6.1280003
0.17278327 -2.4104683 6.1260004
0.20677343 -2.4104683 6.1260004
0.18402316 -2.4092879 6.1230001
0.19537957 -2.4096813 6.1240001
0.17275508 -2.3987467 6.1250005
0.1615323 -2.3889775 6.1290002
1.3977965 -3.0592747 6.1320004
1.4086781 -3.0582769 6.1300001
1.4102867 -3.0504189 6.1370001
1.3869076 -3.0489275 6.1340003
1.3871336 -3.0380781 6.1350002
1.4100568 -3.0385733 6.1360002
1.3871336 -3.0267313 6.1350002
1.3993921 -3.0287046 6.1390004
1.4095973 -3.026238 6.1340003
1.2839661 -2.9902523 6.1300001
1.2961488 -2.9922035 6.1340003
1.2850133 -2.9813445 6.1350002
1.3081331 -2.9823165 6.1370001
1.2852228 -2.9704819 6.1360002
1.296994 -2.9714501 6.1380005
1.3083463 -2.9714501 6.1380005
1.2726287 -2.9675772 6.1300001
1.2732514 -2.9576867 6.1330004
1.2850133 -2.9586511 6.1350002
1.2965714 -2.9591334 6.1360002
1.1040058 -2.8806322 6.1380005
1.1267103 -2.8806322 6.1380005
1.1376917 -2.8796935 6.1360002
1.1488531 -2.8792243 6.1350002
1.0924755 -2.8688126 6.1370001
1.0805967 -2.8560653 6.1340003
1.0926536 -2.8579276 6.1380005
1.0353861 -2.8451841 6.1350002
1.0469034 -2.8456478 6.1360002
1.0582519 -2.8456478 6.1360002
1.0694262 -2.8451841 6.1350002
1.0811251 -2.8461115 6.1370001
1.0926536 -2.8465755 6.1380005
1.0238724 -2.8333755 6.1340003
1.0240394 -2.8224907 6.1350002
0.96699053 -2.8045533 6.1330004
0.97857279 -2.8052387 6.1345005
0.98935378 -2.8093112 6.1310005
0.99064475 -2.8016229 6.1390004
1.0011828 -2.8050106 6.1340003
0.95533592 -2.797972 6.1310005
0.97929066 -2.7902687 6.1390004
0.95564753 -2.7875416 6.1330004
0.96762121 -2.7893596 6.1370001
0.87596083 -2.7752934 6.1310005
0.88715535 -2.7748406 6.1300001
0.89849281 -2.7748406 6.1300001
0.9101271 -2.7757459 6.1320004
0.92191911 -2.7771039 6.1350002
0.93357003 -2.7780092 6.1370001
0.94492042 -2.7780092 6.1370001
0.95658243 -2.7789147 6.1390004
0.86476254 -2.7644048 6.1320004
0.87638944 -2.7653065 6.1340003
0.88787901 -2.7657573 6.1350002
0.89922571 -2.7657573 6.1350002
0.91086924 -2.7666588 6.1370001
0.81966519 -2.7539616 6.1340003
0.86490357 -2.7535126 6.1330004
0.87667519 -2.7548594 6.1360002
0.88831317 -2.7557576 6.1380005
0.89966542 -2.7557576 6.1380005
0.82019967 -2.7444053 6.1380005
0.83087456 -2.7421696 6.1330004
0.84208024 -2.7417226 6.1320004
0.85369974 -2.7426167 6.1340003
0.86574972 -2.7448523 6.1390004
0.82019967 -2.733053 6.1380005
0.83128101 -2.7321625 6.1360002
0.84290421 -2.733053 6.1380005
0.76244342 -2.7294908 6.1300001
0.82019967 -2.7217007 6.1380005
0.83168739 -2.7221441 6.1390004
0.7632519 -2.7153587 6.1365004
0.80884743 -2.7103484 6.1380005
0.75171864 -2.7090237 6.1350002
0.7400099 -2.696358 6.1320004
0.78601485 -2.6985564 6.1370001
0.79749519 -2.6989963 6.1380005
0.74037194 -2.6863303 6.1350002
0.78601485 -2.687206 6.1370001
0.70621669 -2.6632028 6.1340003
0.7174446 -2.6627686 6.1330004
0.74073398 -2.6649394 6.1380005
0.7065621 -2.6531549 6.1370001
0.71779555 -2.6527226 6.1360002
0.68374991 -2.6413741 6.1360002
0.69521171 -2.6418045 6.1370001
0.70679235 -2.6426654 6.1390004
0.67251092 -2.6304541 6.1370001
0.68408418 -2.6313114 6.1390004
0.57007855 -2.6064787 6.1340003
0.58132863 -2.6060536 6.1330004
0.55855155 -2.5942876 6.1320004
0.57035738 -2.5964029 6.1370001
0.5814234 -2.5951338 6.1340003
0.55846047 -2.5825253 6.1310005
0.56998563 -2.5833676 6.1330004
0.25234056 -2.4468527 6.1320004
0.26376769 -2.4476507 6.1340003
0.27502283 -2.4468527 6.1320004
0.25242284 -2.4363058 6.1340003
0.2638537 -2.4371002 6.1360002
0.27511254 -2.4363058 6.1340003
0.25238168 -2.4245658 6.1330004
0.2638537 -2.4257517 6.1360002
0.27520224 -2.4257517 6.1360002
0.27529195 -2.4151902 6.1380005
1.399848 -3.052407 6.1410003
1.4005319 -3.0425348 6.1440001
1.2974166 -2.9837742 6.1400003
1.3089857 -2.9501867 6.1410003
1.2980505 -2.9397862 6.1430001
1.2528085 -2.9175379 6.1440001
1.2641718 -2.9175379 6.1440001
1.276158 -2.9189627 6.1470003
1.2418492 -2.9071207 6.1460004
1.2424554 -2.8971672 6.1490002
1.1157215 -2.8815708 6.1400003
1.1052649 -2.8725522 6.1450005
1.1401021 -2.8744221 6.1490002
1.1505383 -2.8720846 6.1440001
1.1615235 -2.8711498 6.1420002
1.1054448 -2.8616526 6.1460004
1.1511002 -2.8621182 6.1470003
1.1620908 -2.861187 6.1450005
1.105085 -2.8493581 6.1440001
1.0369049 -2.8379946 6.1440001
1.0489508 -2.8398423 6.1480002
1.0603215 -2.8398423 6.1480002
1.0708207 -2.8375328 6.1430001
1.1171752 -2.8398423 6.1480002
1.0370737 -2.8270915 6.1450005
1.070995 -2.8266313 6.1440001
1.1173569 -2.8289316 6.1490002
1.024874 -2.8134351 6.1400003
1.0718665 -2.817559 6.1490002
1.0257086 -2.8043611 6.1450005
0.9908061 -2.7907233 6.1400003
1.0021621 -2.7907233 6.1400003
1.0257086 -2.7929957 6.1450005
0.97976923 -2.7802727 6.1420002
0.99161297 -2.7816305 6.1450005
1.0033046 -2.782536 6.1470003
1.0146735 -2.782536 6.1470003
0.96825188 -2.77982 6.1410003
0.98024774 -2.7702653 6.1450005
0.92297101 -2.768913 6.1420002
0.93448275 -2.7693639 6.1430001
0.94569027 -2.768913 6.1420002
0.95704991 -2.768913 6.1420002
0.96872491 -2.7698145 6.1440001
0.91131449 -2.7566555 6.1400003
0.92327154 -2.7584512 6.1440001
0.93463486 -2.7584512 6.1440001
0.94569027 -2.7575533 6.1420002
0.87738955 -2.7457466 6.1410003
0.88918149 -2.747088 6.1440001
0.90054482 -2.747088 6.1440001
0.91205662 -2.747535 6.1450005
0.92357206 -2.7479823 6.1460004
0.93478698 -2.747535 6.1450005
0.85481316 -2.734834 6.1420002
0.86659586 -2.7361698 6.1450005
0.87824678 -2.7370603 6.1470003
0.8899051 -2.7379508 6.1490002
0.90127772 -2.7379508 6.1490002
0.91265029 -2.7379508 6.1490002
0.92357206 -2.7366152 6.1460004
0.797885 -2.723031 6.1410003
0.809111 -2.7225876 6.1400003
0.84331614 -2.723031 6.1410003
0.85523063 -2.7248046 6.1450005
0.86701894 -2.726135 6.1480002
0.87853253 -2.7265782 6.1490002
0.8899051 -2.7265782 6.1490002
0.90113115 -2.726135 6.1480002
0.91250187 -2.726135 6.1480002
0.77516937 -2.7116733 6.1410003
0.78639913 -2.7112317 6.1400003
0.79775506 -2.7112317 6.1400003
0.82046694 -2.7112317 6.1400003
0.83263576 -2.713881 6.1460004
0.84441477 -2.7152057 6.1490002
0.76406038 -2.7011948 6.1430001
0.8211351 -2.7020743 6.1450005
0.75233126 -2.6998756 6.1400003
0.76418477 -2.6902711 6.1440001
0.77504319 -2.6998756 6.1400003
0.809111 -2.6998756 6.1400003
0.82153594 -2.6920228 6.1480002
0.75257635 -2.6893954 6.1420002
0.7645579 -2.6802158 6.1470003
0.77516937 -2.6889577 6.1410003
0.80924278 -2.6889577 6.1410003
0.74097532 -2.6771638 6.1400003
0.75294393 -2.6793439 6.1450005
0.77542186 -2.6784718 6.1430001
0.80976987 -2.6793439 6.1450005
0.7526989 -2.6671104 6.1430001
0.7645579 -2.6688471 6.1470003
0.77567434 -2.6679788 6.1450005
0.81016523 -2.6692812 6.1480002
0.69566482 -2.6321685 6.1410003
0.70713776 -2.6325972 6.1420002
0.6728397 -2.620384 6.1400003
0.68430704 -2.6208107 6.1410003
0.69600469 -2.6220911 6.1440001
0.67316842 -2.6103029 6.1430001
0.68475276 -2.6111526 6.1450005
0.69634455 -2.6120026 6.1470003
0.51410753 -2.5307724 6.1430001
0.52598226 -2.5332444 6.1490002
0.50282788 -2.5254998 6.1440001
0.49130455 -2.5190008 6.1420002
0.50323707 -2.5104992 6.1490002
1.5064709 -3.0613539 6.1590004
1.5158905 -3.0573776 6.1510005
1.5277634 -3.0469916 6.1530004
1.5292531 -3.0385718 6.1590004
1.4260384 -2.9801641 6.1560001
1.3918818 -2.9573929 6.1560001
1.3109041 -2.943136 6.1500001
1.3222785 -2.943136 6.1500001
1.3111173 -2.9322383 6.1510005
1.3224936 -2.9322383 6.1510005
1.2881552 -2.9203873 6.1500001
1.2997409 -2.920862 6.1510005
1.3119699 -2.9227614 6.1550002
1.3235686 -2.9232364 6.1560001
1.2556632 -2.9127967 6.1580005
1.2900404 -2.9132698 6.1590004
1.3014314 -2.9132698 6.1590004
1.255867 -2.9018788 6.1590004
1.2432636 -2.8876717 6.1530004
1.1175386 -2.8748894 6.1500001
1.128913 -2.8748894 6.1500001
1.1177204 -2.8639805 6.1510005
1.1292802 -2.8644462 6.1520004
1.1404729 -2.8639805 6.1510005
1.1177204 -2.8526044 6.1510005
1.1294638 -2.8535318 6.1530004
1.1408437 -2.8535318 6.1530004
1.1518492 -2.8526044 6.1510005
1.1630363 -2.8521407 6.1500001
1.1290966 -2.841228 6.1510005
1.1406584 -2.8416901 6.1520004
1.1520364 -2.8416901 6.1520004
1.1636037 -2.8421519 6.1530004
1.049292 -2.8293917 6.1500001
1.0606664 -2.8293917 6.1500001
1.0379176 -2.8180172 6.1500001
1.0499744 -2.8198502 6.1540003
1.0613563 -2.8198502 6.1540003
1.1076031 -2.8102937 6.1580005
1.0385926 -2.8084683 6.1540003
1.0503157 -2.809381 6.1560001
1.0617012 -2.809381 6.1560001
1.0729125 -2.8089247 6.1550002
1.0841199 -2.8084683 6.1540003
1.0956799 -2.8089247 6.1550002
1.1188107 -2.8098373 6.1570001
1.0384239 -2.7966318 6.1530004
1.050145 -2.7975409 6.1550002
1.0617012 -2.7979956 6.1560001
1.0730867 -2.7979956 6.1560001
1.0848247 -2.7989044 6.1580005
1.0963919 -2.7993591 6.1590004
1.0265431 -2.7838938 6.1500001
1.0385926 -2.7857046 6.1540003
1.050145 -2.7861574 6.1550002
1.0618737 -2.7870626 6.1570001
0.99258119 -2.7729702 6.1510005
1.0044471 -2.7743227 6.1540003
1.015829 -2.7743227 6.1540003
1.0277115 -2.7756753 6.1570001
1.0392677 -2.7761259 6.1580005
1.0506569 -2.7761259 6.1580005
1.0622187 -2.7765768 6.1590004
0.99258119 -2.7615941 6.1510005
1.0047735 -2.7638388 6.1560001
1.0163242 -2.7642877 6.1570001
1.0278784 -2.7647369 6.1580005
1.0051 -2.7533476 6.1580005
1.0164893 -2.7533476 6.1580005
0.85634404 -2.7169721 6.1530004
0.86786509 -2.7174137 6.1540003
0.87910402 -2.7169721 6.1530004
0.89033931 -2.7165303 6.1520004
0.90171742 -2.7165303 6.1520004
0.91309559 -2.7165303 6.1520004
0.83358407 -2.7055919 6.1530004
0.84537607 -2.7069111 6.1560001
0.87981838 -2.7077906 6.1580005
0.8909182 -2.7069111 6.1560001
0.90259689 -2.7077906 6.1580005
0.9141345 -2.7082303 6.1590004
0.834126 -2.6959636 6.1570001
0.845788 -2.6968393 6.1590004
0.87996125 -2.6968393 6.1590004
0.89120764 -2.6964014 6.1580005
0.90274346 -2.6968393 6.1590004
0.82220411 -2.682832 6.1530004
0.83439696 -2.6854482 6.1590004
0.82247132 -2.6723204 6.1550002
0.83439696 -2.674057 6.1590004
0.845788 -2.674057 6.1590004
0.82247132 -2.6609366 6.1550002
0.83426148 -2.6622336 6.1580005
0.82287222 -2.6508443 6.1580005
0.70840424 -2.6031721 6.1530004
0.72013515 -2.6044414 6.1560001
0.73175836 -2.6052876 6.1580005
0.65155721 -2.5749283 6.1535001
0.64033234 -2.5698671 6.1550002
0.62894869 -2.5584836 6.1550002
0.53787917 -2.5357161 6.1550002
0.54935211 -2.536128 6.1560001
0.56091982 -2.536952 6.1580005
0.51469338 -2.5222819 6.1500001
0.52675211 -2.5255628 6.1580005
0.51486075 -2.511724 6.1520004
0.52675211 -2.5027845 6.1580005
1.5190942 -3.052439 6.1640005
1.5084277 -3.0425186 6.1670003
1.5190942 -3.0410385 6.1640005
1.5309912 -3.0306213 6.1660004
1.542145 -3.0301297 6.1650004
1.5532953 -3.0296383 6.1640005
1.5312395 -3.019707 6.1670003
1.5312395 -3.008301 6.1670003
1.4385914 -2.9825845 6.1610003
1.4499862 -2.9825845 6.1610003
1.4278916 -2.9726365 6.1640005
1.4399924 -2.9740834 6.1670003
1.4511629 -2.9736011 6.1660004
1.4050909 -2.9612362 6.1640005
1.4176402 -2.9636383 6.1690001
1.3936906 -2.949836 6.1640005
1.3936906 -2.9384356 6.1640005
1.2678754 -2.9146888 6.1620002
1.2790644 -2.9142158 6.1610003
1.3134619 -2.9146888 6.1620002
1.3250736 -2.9151618 6.1630001
1.3360384 -2.9142158 6.1610003
1.2678754 -2.9032922 6.1620002
1.2792721 -2.9032922 6.1620002
1.2902498 -2.9023499 6.1600003
1.3016427 -2.9023499 6.1600003
1.3138883 -2.9042346 6.1640005
1.3257186 -2.9051769 6.1660004
1.3369058 -2.9047058 6.1650004
1.2562748 -2.8914263 6.1610003
1.2682869 -2.8928342 6.1640005
1.2798948 -2.8933036 6.1650004
1.2915065 -2.8937728 6.1660004
1.3029106 -2.8937728 6.1660004
1.2566826 -2.8809664 6.1630001
1.2689042 -2.8828363 6.1670003
1.2570904 -2.8704991 6.1650004
1.2693157 -2.8723617 6.1690001
1.2579062 -2.8609521 6.1690001
1.1780391 -2.8153138 6.1690001
1.1083225 -2.8007226 6.1620002
1.1195375 -2.8002679 6.1610003
1.0858816 -2.7902312 6.1640005
1.097638 -2.7911365 6.1660004
1.1095816 -2.7924945 6.1690001
1.1209912 -2.7924945 6.1690001
1.1322172 -2.792042 6.1680002
1.1438104 -2.7924945 6.1690001
1.073784 -2.7884207 6.1600003
1.0864102 -2.7801833 6.1670003
1.0981721 -2.781085 6.1690001
1.0741327 -2.7779293 6.1620002
1.0396053 -2.7656348 6.1600003
1.0509982 -2.7656348 6.1600003
1.0864102 -2.7687774 6.1670003
1.0283792 -2.754689 6.1610003
1.040449 -2.7564774 6.1650004
1.0520219 -2.7569244 6.1660004
1.0637708 -2.7578187 6.1680002
1.02888 -2.7446299 6.1640005
0.86871123 -2.7086701 6.1600003
0.92582613 -2.7091098 6.1610003
0.93775332 -2.7049458 6.1645002
0.94876969 -2.7095494 6.1620002
0.85759664 -2.6981528 6.1620002
0.86885226 -2.697715 6.1610003
0.91443139 -2.697715 6.1610003
0.92642725 -2.6994665 6.1650004
0.94938558 -2.6999044 6.1660004
0.84592533 -2.6858842 6.1600003
0.85773581 -2.6871922 6.1630001
0.86913431 -2.6871922 6.1630001
0.88038987 -2.6867561 6.1620002
0.89178652 -2.6867561 6.1620002
0.90362287 -2.6880643 6.1650004
0.91532189 -2.6889362 6.1670003
0.85745746 -2.6749253 6.1610003
0.86913431 -2.6757936 6.1630001
0.88067567 -2.676228 6.1640005
0.8923654 -2.6770964 6.1660004
0.9042092 -2.6783988 6.1690001
0.86913431 -2.6643953 6.1630001
0.89251018 -2.6661246 6.1670003
0.9042092 -2.6669891 6.1690001
0.81174654 -2.6403124 6.1600003
0.72060305 -2.5947406 6.1600003
0.721071 -2.5850253 6.1640005
0.73270899 -2.5858641 6.1660004
0.7215389 -2.575295 6.1680002
0.64095658 -2.5609777 6.1610003
0.6525631 -2.5618088 6.1630001
0.66396159 -2.5618088 6.1630001
0.64116466 -2.5504105 6.1630001
0.65266901 -2.5508242 6.1640005
0.56164855 -2.5288439 6.1660004
0.57249492 -2.5263832 6.1600003
0.58388788 -2.5263832 6.1600003
0.52692318 -2.5149901 6.1600003
0.5618307 -2.5182564 6.1680002
0.57258785 -2.5153985 6.1610003
0.53857827 -2.5048165 6.1630001
0.55024451 -2.5060358 6.1660004
0.20808981 -2.3117924 6.1650004
0.20822483 -2.3018827 6.1690001
1.5433958 -3.0211759 6.1700001
1.5553112 -3.022155 6.1720004
1.5438961 -3.01074 6.1720004
1.5558152 -3.0117157 6.1740003
1.5560672 -3.0007827 6.1750002
1.5441462 -2.9998109 6.1730003
1.4309031 -2.9674816 6.1770005
1.4425609 -2.967962 6.1780005
1.4537518 -2.9674816 6.1770005
1.4066865 -2.9531858 6.1710005
1.4190191 -2.9551001 6.1750002
1.4064586 -2.9412959 6.1700001
1.4187893 -2.9432027 6.1740003
1.3158066 -2.897058 6.1730003
1.3280836 -2.8989353 6.1770005
1.3392912 -2.8984659 6.1760001
1.350495 -2.8979967 6.1750002
1.2809329 -2.8842387 6.1700001
1.2931821 -2.8861086 6.1740003
1.3050236 -2.8870435 6.1760001
1.2815558 -2.8742242 6.1730003
1.2938105 -2.8760865 6.1770005
1.2703445 -2.8632708 6.1740003
1.2585179 -2.8509283 6.1720004
1.2709618 -2.8532379 6.1770005
1.2709618 -2.8418133 6.1770005
1.2368889 -2.8308473 6.1780005
1.2126608 -2.8276398 6.1710005
1.2248676 -2.8294725 6.1750002
1.1902199 -2.8171391 6.1730003
1.2022209 -2.8185084 6.1760001
1.2140365 -2.8194211 6.1780005
1.1789939 -2.8061767 6.1740003
1.1913768 -2.8084493 6.1790004
1.1563435 -2.7952106 6.1750002
1.1681424 -2.7961159 6.1770005
1.110301 -2.7828882 6.1730003
1.1222632 -2.7842407 6.1760001
1.1338693 -2.7846916 6.1770005
1.110301 -2.7714713 6.1730003
1.1228083 -2.7741652 6.1790004
1.1106608 -2.7609487 6.1750002
1.065323 -2.7504184 6.1770005
1.0412929 -2.7473016 6.1700001
1.0535574 -2.7495279 6.1750002
1.0762244 -2.7490826 6.1740003
1.0414617 -2.7363336 6.1710005
1.053728 -2.7385507 6.1760001
1.065323 -2.7389941 6.1770005
0.92762941 -2.6915524 6.1730003
0.93950278 -2.6928606 6.1760001
0.95092529 -2.6928606 6.1760001
0.96188033 -2.6915524 6.1730003
0.92808026 -2.681438 6.1760001
0.97408569 -2.6823063 6.1780005
0.91576719 -2.678833 6.1700001
0.92792994 -2.6695831 6.1750002
0.73318434 -2.5761302 6.1700001
0.7221238 -2.5659657 6.1730003
0.73389727 -2.5672128 6.1760001
0.74531984 -2.5672128 6.1760001
0.72247475 -2.5557902 6.1760001
0.73425376 -2.5570316 6.1790004
0.59673035 -2.4982729 6.1750002
0.21970561 -2.3140423 6.1710005
0.23111889 -2.3140423 6.1710005
0.21984802 -2.3041215 6.1750002
0.2312687 -2.3041215 6.1750002
0.19713429 -2.282758 6.1790004
1.4320613 -2.9584498 6.1820002
1.4441954 -2.9598856 6.1850004
1.4561052 -2.9551196 6.1870003
1.4320613 -2.9470162 6.1820002
1.4448959 -2.9498765 6.1880002
1.4320613 -2.9355826 6.1820002
1.4318297 -2.923676 6.1810002
1.4451294 -2.9160135 6.1890001
1.3181514 -2.8907831 6.1840005
1.3306637 -2.8931205 6.1890001
1.3421103 -2.8931205 6.1890001
1.3531195 -2.8921854 6.1870003
1.3187908 -2.8807425 6.1870003
1.3058689 -2.8774834 6.1800003
1.2832166 -2.8665173 6.1810002
1.2956957 -2.8688359 6.1860003
1.3075593 -2.8697636 6.1880002
1.284047 -2.8569331 6.1850004
1.284047 -2.845494 6.1850004
1.2836318 -2.8331382 6.1830001
1.2961146 -2.8354294 6.1880002
1.2260578 -2.8207901 6.1810002
1.2382903 -2.8226156 6.1850004
1.2495275 -2.8221593 6.1840005
1.2270495 -2.811631 6.1860003
1.2503357 -2.8125401 6.1880002
1.1927265 -2.80019 6.1860003
1.2037781 -2.8050003 6.184
1.2154119 -2.805454 6.1850004
1.1805216 -2.7983792 6.1820002
1.216198 -2.7901013 6.1890001
1.1460353 -2.7864947 6.1810002
1.1580288 -2.7878473 6.1840005
1.1696553 -2.7882981 6.1850004
1.1810944 -2.7882981 6.1850004
1.1927265 -2.788749 6.1860003
1.2043622 -2.7891996 6.1870003
1.1346035 -2.775063 6.1810002
1.1467769 -2.7768588 6.1850004
1.158778 -2.7782059 6.1880002
1.1700335 -2.7777569 6.1870003
1.1812854 -2.7773077 6.1860003
1.1235352 -2.7645254 6.1830001
1.1355213 -2.7658668 6.1860003
1.1233535 -2.7526448 6.1820002
1.1355213 -2.7544258 6.1860003
0.9404155 -2.6840429 6.1820002
0.9518491 -2.6840429 6.1820002
0.9631269 -2.6836088 6.1810002
0.94026339 -2.6721771 6.1810002
0.9518491 -2.6726093 6.1820002
0.96343857 -2.6730418 6.1830001
0.9404155 -2.6611757 6.1820002
0.95215708 -2.6620367 6.1840005
0.96421766 -2.6637585 6.1880002
0.9755047 -2.6633282 6.1870003
0.952465 -2.6514566 6.1860003
0.87153172 -2.626025 6.1800003
0.8831045 -2.6264501 6.1810002
0.86051929 -2.6158643 6.1830001
0.8725189 -2.6175566 6.1870003
0.88410461 -2.6179798 6.1880002
0.87280095 -2.6069562 6.1890001
0.72317666 -2.5468395 6.1820002
0.73496675 -2.5480754 6.1850004
0.74640596 -2.5480754 6.1850004
0.72364455 -2.5370464 6.1860003
0.7354421 -2.5382769 6.1890001
0.62037438 -2.4900742 6.1830001
0.63191205 -2.4904768 6.1840005
0.59721351 -2.4888659 6.1800003
0.60864347 -2.4888659 6.1800003
0.57463247 -2.4786386 6.1830001
0.58606797 -2.4786386 6.1830001
0.5976001 -2.4790397 6.1840005
0.60923439 -2.4798412 6.1860003
0.57444662 -2.4664052 6.1810002
0.20859611 -2.2945573 6.1800003
0.24316099 -2.2971563 6.1870003
0.25456271 -2.2967849 6.1860003
0.26600373 -2.2967849 6.1860003
0.1972938 -2.2731678 6.1840005
1.4577527 -2.9412811 6.1940002
1.4455965 -2.9398565 6.1910005
1.4453629 -2.9279332 6.1900001
1.4575174 -2.9293523 6.1930003
1.4570466 -2.9169559 6.1910005
1.4453629 -2.9050364 6.1900001
1.4570466 -2.9055057 6.1910005
1.4460634 -2.8949902 6.1930003
1.4584588 -2.8968601 6.1970005
1.3431946 -2.884002 6.1940002
1.3537755 -2.8821394 6.1900001
1.3198566 -2.8716185 6.1920004
1.3321687 -2.8734736 6.1960001
1.3436283 -2.8734736 6.1960001
1.354213 -2.8716185 6.1920004
1.3086158 -2.8606284 6.1930003
1.3198566 -2.8601665 6.1920004
1.3313087 -2.8601665 6.1920004
1.3429776 -2.8606284 6.1930003
1.2967429 -2.8597045 6.1910005
1.3539943 -2.8597045 6.1910005
1.2965335 -2.8477943 6.1900001
1.3081932 -2.8482542 6.1910005
1.3194304 -2.8477943 6.1900001
1.3308787 -2.8477943 6.1900001
1.3427608 -2.8487144 6.1920004
1.354213 -2.8487144 6.1920004
1.3079818 -2.8363459 6.1900001
1.2392913 -2.8134489 6.1900001
1.2282397 -2.8029058 6.1920004
1.2402924 -2.8042638 6.1950002
1.2511439 -2.8029058 6.1920004
1.228438 -2.7919047 6.1930003
1.2402924 -2.7928061 6.1950002
1.228438 -2.7804506 6.1930003
1.1480749 -2.7685494 6.1920004
1.1597142 -2.7689967 6.1930003
1.17079 -2.7681024 6.1910005
1.1482602 -2.7575426 6.1930003
1.1599015 -2.757988 6.1940002
1.1711682 -2.7575426 6.1930003
1.147704 -2.7447584 6.1900001
1.1597142 -2.7460887 6.1930003
0.96468514 -2.6535997 6.1910005
0.97597772 -2.6531711 6.1900001
0.88439035 -2.6073775 6.1900001
0.87336504 -2.597187 6.1930003
0.88510472 -2.5980258 6.1950002
0.74713004 -2.5390971 6.1910005
0.73556089 -2.5272386 6.1900001
0.74737138 -2.5284634 6.1930003
0.62107676 -2.4814448 6.1900001
0.63262731 -2.4818456 6.1910005
0.64397359 -2.4814448 6.1900001
0.62127739 -2.4707944 6.1920004
0.63283169 -2.4711936 6.1930003
0.60962832 -2.4699965 6.1900001
0.62147808 -2.4601367 6.1940002
0.60972679 -2.4589453 6.1910005
0.26630473 -2.28793 6.1930003
0.27766901 -2.2871912 6.1910005
0.25493309 -2.2772112 6.1950002
0.26634774 -2.2768435 6.1940002
1.5177224 -2.9006 6.2050004
1.4594002 -2.8872612 6.2010002
1.2539728 -2.7633312 6.2060003
1.2086446 -2.7302163 6.2090001
1.1969683 -2.7297766 6.2080002
0.58853245 -2.4086766 6.2090001
0.56556529 -2.397193 6.2090001
0.32394034 -2.2905161 6.2000003
0.33551544 -2.291255 6.2020001
0.32414931 -2.2805195 6.2040005
0.33573183 -2.2812548 6.2060003
0.31282619 -2.2701423 6.2070003
0.26664874 -2.2679479 6.2010002
0.27811751 -2.2679479 6.2010002
0.28963298 -2.2683136 6.2020001
0.26690677 -2.2586625 6.2070003
0.27843148 -2.2590265 6.2080002
0.2555092 -2.2479067 6.2090001
0.26694977 -2.2475448 6.2080002
0.27847633 -2.2479067 6.2090001
0.24402565 -2.2364233 6.2090001
0.2555092 -2.2364233 6.2090001
0.26699275 -2.2364233 6.2090001
0.24402565 -2.2249396 6.2090001
1.5204129 -2.8827488 6.2160001
0.96889228 -2.584671 6.2180004
0.91080499 -2.5600228 6.2140002
0.8990227 -2.5591989 6.2120004
0.57732767 -2.4098403 6.2120004
0.5776065 -2.3995097 6.2150002
0.32451504 -2.2716055 6.2110004
0.33600232 -2.2716055 6.2110004
0.3015891 -2.2604821 6.2120004
0.31322938 -2.2615738 6.2150002
0.32477629 -2.2619376 6.2160001
0.33621871 -2.2615738 6.2150002
0.29000658 -2.2597542 6.2100005
0.3133302 -2.250803 6.2170005
0.32488081 -2.2511652 6.2180004
0.29014668 -2.2493548 6.2130003
0.30180758 -2.2448711 6.2165003
0.27861089 -2.2375038 6.2120004
0.29038018 -2.239665 6.2180004
0.23265444 -2.2260146 6.2120004
0.29042688 -2.228523 6.2190003
0.23269188 -2.2148821 6.2130003
0.20977749 -2.2041004 6.2150002
0.22130774 -2.2044551 6.2160001
1.5216359 -2.8735619 6.2210002
1.3151662 -2.7483234 6.2240005
0.58976465 -2.3907046 6.2220001
0.60151386 -2.3743925 6.2245002
0.56729597 -2.3584538 6.2280002
0.31358218 -2.2411058 6.2220001
0.32508978 -2.2411058 6.2220001
0.31378379 -2.2310314 6.2260003
0.32524654 -2.2306731 6.2250004
