# .PCD v0.7 - Point Cloud Data file format
VERSION 0.7
FIELDS x y z
SIZE 4 4 4
TYPE F F F
COUNT 1 1 1
WIDTH 1016
HEIGHT 1
VIEWPOINT 0 0 0 1 0 0 0
POINTS 1016
DATA ascii
-1.1651739 -0.92283183 1.899
-1.1592149 -0.92439282 1.8950001
-1.1573796 -0.91943014 1.8920001
-1.0952429 -0.94625437 1.9180001
-1.107276 -0.94185281 1.9235001
-1.0962962 -0.94684154 1.9240001
-1.1129029 -0.934982 1.9240001
-1.0977929 -0.95106262 1.9350001
-1.1133804 -0.94195384 1.9310001
-1.1050757 -0.94442427 1.9346002
-1.1145337 -0.93577927 1.9330001
-1.109809 -0.93838245 1.9310001
-1.0636203 -0.79229838 2.0375001
-1.0553995 -0.79155046 2.0380001
-1.0747467 -0.78463387 2.0371668
-1.0641763 -0.78396094 2.0364003
-1.0540714 -0.78448313 2.0358
-1.0474893 -0.78381258 2.0366666
-1.0847763 -0.77433813 2.0362859
-1.0751483 -0.77495378 2.0352499
-1.0648942 -0.77489543 2.0363333
-1.0549371 -0.77558571 2.0365
-1.0467893 -0.77826142 2.03775
-1.0834595 -0.76470679 2.0378573
-1.0739285 -0.76390094 2.0371432
-1.0645612 -0.76686078 2.0375001
-1.0587462 -0.76836878 2.039
-1.0819217 -0.7553032 2.0376668
-1.0741628 -0.75524986 2.0381999
-1.0625173 -0.7570554 2.039
-1.0550269 -0.80567431 2.0427501
-1.0455372 -0.80564165 2.0426667
-1.0355302 -0.8047837 2.0452859
-1.0261111 -0.80271572 2.04725
-1.0551513 -0.79773325 2.0408003
-1.0446283 -0.7955032 2.040889
-1.0352086 -0.79537183 2.0421669
-1.0249019 -0.7947787 2.0445714
-1.0184631 -0.79298007 2.049
-1.0420116 -0.78466904 2.0402
-1.0536059 -0.77251858 2.0400002
-1.0899833 -0.76346016 2.0410001
-1.0705844 -0.76119965 2.0400002
-1.0655538 -0.76245731 2.0400002
-1.0553435 -0.7647351 2.0406251
-1.0878215 -0.75426817 2.0416667
-1.0721925 -0.75138348 2.0406668
-1.065511 -0.75304615 2.0404003
-1.0931876 -0.74677312 2.0469999
-1.0840238 -0.74473047 2.0440001
-1.0753176 -0.74506521 2.0436251
-1.0657519 -0.74378681 2.0440001
-1.0847816 -0.73803049 2.049
-1.075132 -0.73791045 2.0486667
-1.0645344 -0.73713005 2.0465002
-1.0172262 -0.82120395 2.0580001
-1.0344769 -0.81357634 2.0522003
-1.0242475 -0.81351358 2.0530002
-1.0150756 -0.81529659 2.0574999
-1.0062971 -0.81589079 2.059
-1.023415 -0.80716199 2.0513334
-1.0151173 -0.80561119 2.0542858
-1.0051367 -0.80493641 2.0553336
-1.0151958 -0.79578012 2.0513334
-1.0758324 -0.74218214 2.0500002
-1.0848085 -0.73275244 2.0512002
-1.0757023 -0.73351073 2.0512002
-1.0658411 -0.73365498 2.0526667
-1.0547912 -0.73564422 2.05425
-1.0951655 -0.72700292 2.0563998
-1.0844852 -0.72520459 2.055625
-1.0748031 -0.72508579 2.0552859
-1.0655407 -0.7252506 2.0557501
-1.0832756 -0.71443146 2.059
-1.0748434 -0.71878362 2.059
-1.065323 -0.71878362 2.059
-1.0843637 -0.70735925 2.059
-0.99332285 -0.83270955 2.0676668
-1.0045964 -0.82524204 2.0633335
-0.99435043 -0.82624149 2.0658336
-0.98528904 -0.82364756 2.0668573
-0.9762727 -0.82136953 2.0680001
-1.0010709 -0.81628704 2.0600002
-0.9944135 -0.81517339 2.0620003
-0.98440415 -0.81444979 2.0650003
-0.9762727 -0.81563234 2.0680001
-1.0887003 -0.7172277 2.0600002
-1.074154 -0.71387863 2.0613334
-1.0636928 -0.71408188 2.0642858
-1.0549812 -0.71458757 2.0655999
-1.0938464 -0.70497119 2.0654001
-1.0847598 -0.70463067 2.0621667
-1.0751963 -0.7050302 2.0633333
-1.065599 -0.70546401 2.0660002
-1.0590172 -0.70696807 2.069
-1.0929282 -0.69897681 2.0680001
-1.0850414 -0.69459122 2.0663335
-1.0758483 -0.69478846 2.0655
-1.0669984 -0.69614595 2.0671668
-1.0828424 -0.68717009 2.0670002
-1.074936 -0.68700385 2.0665002
-0.98361397 -0.83332461 2.073
-0.97524905 -0.83414817 2.0760002
-0.96492082 -0.8343485 2.0764999
-0.95770299 -0.83282739 2.0775001
-0.97434551 -0.82503521 2.0700002
-0.96537209 -0.82437956 2.0743752
-0.95631838 -0.8275283 2.0786667
-0.97178704 -0.81476992 2.0706668
-0.96675795 -0.81543404 2.0751431
-1.0551383 -0.70514864 2.0704
-1.0648049 -0.69338351 2.0703335
-1.092 -0.68741214 2.0735002
-1.0845206 -0.68283087 2.0724003
-1.0750099 -0.68339968 2.0718
-1.0848074 -0.67776388 2.0762501
-1.0750926 -0.67569917 2.0764003
-0.9650901 -0.84192818 2.0810001
-0.95522135 -0.84212548 2.084667
-0.94902772 -0.84089839 2.0880001
-0.97616732 -0.83767658 2.0800002
-0.95365733 -0.83625561 2.08125
-0.94457549 -0.83352023 2.085
-0.96077943 -0.82228869 2.0800002
-0.95546812 -0.82268405 2.0810001
-0.96093339 -0.81472594 2.0803335
-0.95594466 -0.8158356 2.0812001
-1.0006903 -0.75220227 2.0830002
-0.9944188 -0.75590199 2.0848575
-1.0120016 -0.74239051 2.0825002
-1.0052038 -0.744986 2.0843751
-0.99923056 -0.74821615 2.0880001
-1.0161862 -0.73603851 2.0845001
-1.0858359 -0.67346632 2.08375
-1.0761883 -0.67225707 2.0800002
-1.082372 -0.66792625 2.0845001
-1.0746228 -0.66597384 2.0844285
-1.0653312 -0.6654678 2.0845714
-1.0750495 -0.65971142 2.089
-1.0653905 -0.65971142 2.089
-0.9520967 -0.84577161 2.0905001
-0.94453233 -0.84572315 2.0951669
-0.93546438 -0.84428024 2.0980003
-0.92510939 -0.8426854 2.09725
-0.91865057 -0.84104544 2.098
-0.94265664 -0.83823925 2.0910001
-0.93551785 -0.83426005 2.0923336
-0.92420197 -0.83406538 2.0929999
-0.98277467 -0.76230353 2.0913334
-0.99403745 -0.75206214 2.0933335
-0.98610145 -0.75677484 2.0956666
-0.97514617 -0.75974107 2.0985003
-1.0031626 -0.74283034 2.0946002
-0.99771816 -0.74756283 2.0970001
-1.012749 -0.73399282 2.0933335
-1.0098476 -0.7387476 2.0940001
-1.0130932 -0.72486454 2.0938573
-1.0081366 -0.71510798 2.0985003
-1.085112 -0.66306758 2.0935001
-1.0825704 -0.65458447 2.0973334
-1.0749551 -0.65478092 2.0938334
-1.065495 -0.65516722 2.0929999
-1.0730929 -0.64850736 2.0964999
-1.0647267 -0.6469754 2.0962501
-1.0627263 -0.63957685 2.0990002
-0.92438936 -0.85356891 2.1040001
-0.91934848 -0.85500431 2.1085
-0.93312013 -0.8496151 2.1000001
-0.92729419 -0.8496151 2.1000001
-0.91521907 -0.84584504 2.1035001
-0.90622175 -0.84309423 2.1070001
-0.9134872 -0.83706695 2.1010001
-0.95267791 -0.77284569 2.1046
-0.97047961 -0.76064616 2.1010001
-0.96423358 -0.76185298 2.1043334
-0.98408192 -0.75350398 2.104125
-0.9757179 -0.75685811 2.1056001
-0.96809399 -0.75946176 2.1085
-1.0039847 -0.74157 2.1020002
-0.99502105 -0.7458992 2.1046252
-1.0105387 -0.73237354 2.1035001
-1.0069815 -0.73611736 2.1041999
-1.0081125 -0.72424865 2.1025
-1.006032 -0.71414542 2.10425
-1.0060139 -0.70606172 2.1062503
-1.0835385 -0.64739633 2.1055002
-1.0751313 -0.64359999 2.102
-1.0728753 -0.63631868 2.1075001
-1.0650237 -0.63492376 2.1045001
-1.0638887 -0.62702149 2.1090002
-0.9052211 -0.86020517 2.1165001
-0.91342038 -0.85676175 2.1128333
-0.90404469 -0.85322499 2.11375
-0.89634532 -0.85406417 2.1168001
-0.88865489 -0.853383 2.1190002
-0.9033764 -0.84612256 2.1106668
-0.89446926 -0.84458637 2.115375
-0.88823551 -0.84514451 2.118
-0.89517558 -0.83483773 2.1145716
-0.88865489 -0.83574706 2.1190002
-0.94235748 -0.77244091 2.112
-0.96338582 -0.76036227 2.1110001
-0.95573056 -0.7622388 2.1135001
-0.94607562 -0.76776952 2.1142001
-0.98224938 -0.75113189 2.118
-0.9748351 -0.75385809 2.1146669
-0.96475351 -0.75655323 2.1140001
-0.95829326 -0.75860804 2.1170001
-1.0024289 -0.74084079 2.1110001
-0.99435139 -0.744295 2.1125002
-0.98602444 -0.74758065 2.1135001
-1.0056648 -0.723077 2.1123333
-1.0036123 -0.71532947 2.1135001
-1.0027242 -0.70506829 2.1129999
-1.0031823 -0.69533944 2.1136253
-1.0759884 -0.63322073 2.1123333
-1.0728073 -0.62528759 2.1163332
-1.0645199 -0.6231662 2.1118
-1.0663027 -0.6139307 2.1176667
-1.0605943 -0.60619378 2.118
-0.89439744 -0.86298233 2.1233335
-0.88666421 -0.86501545 2.1283333
-0.89166379 -0.85831356 2.1215
-0.88344592 -0.85396886 2.1253335
-0.88342869 -0.8457303 2.1234002
-0.87534362 -0.84388429 2.1263335
-0.86901891 -0.84343106 2.1285
-0.88321638 -0.83535898 2.1210001
-0.93365818 -0.77287418 2.1203334
-0.92499095 -0.77400464 2.1234446
-0.95199519 -0.76218516 2.1233337
-0.94428205 -0.76495475 2.1251252
-0.93554068 -0.76805049 2.1258001
-0.9734664 -0.75246525 2.1262002
-0.96410561 -0.75575447 2.1255002
-0.95525706 -0.75870305 2.1255
-0.97763532 -0.74968421 2.125
-1.0018958 -0.71386242 2.1236668
-0.99822491 -0.71105087 2.1270001
-0.99830961 -0.70382345 2.1230001
-1.0015305 -0.69487756 2.1256669
-0.99845958 -0.6974448 2.1275001
-1.001452 -0.68499851 2.1255002
-0.99869424 -0.68383497 2.128
-1.0753838 -0.61576468 2.1240003
-1.0741132 -0.60474283 2.1266668
-1.0661179 -0.60355335 2.1225002
-1.062165 -0.59752935 2.1290002
-0.88207042 -0.86433089 2.1315002
-0.87517345 -0.86501914 2.1352859
-0.86825913 -0.86628109 2.1387501
-0.87432176 -0.85526603 2.1318333
-0.86655974 -0.8547045 2.1370001
-0.8735708 -0.84993416 2.1300001
-0.86314964 -0.84510332 2.1348572
-0.92081237 -0.77079737 2.1345
-0.91397417 -0.77424353 2.1342003
-0.94230753 -0.76075298 2.1340001
-0.93485147 -0.7638604 2.1335001
-0.92533726 -0.76733023 2.1358335
-0.91596556 -0.76972723 2.1370001
-0.96330577 -0.75252122 2.13025
-0.95500088 -0.75394851 2.1315002
-0.94688648 -0.75564384 2.1344445
-0.95489264 -0.74949741 2.1356666
-1.0001022 -0.69268161 2.131
-0.99966681 -0.69511855 2.1385002
-1.0001022 -0.68874031 2.131
-0.99732953 -0.68363178 2.1335001
-0.99569345 -0.67462909 2.1300001
-0.99693996 -0.66561091 2.1326668
-1.0730551 -0.59657836 2.1350002
-1.0646592 -0.59432614 2.1340001
-1.0541315 -0.59161419 2.1313336
-1.0633172 -0.58502197 2.1372502
-1.0545452 -0.5849812 2.1335001
-1.063198 -0.57659942 2.1390002
-1.0546945 -0.57742375 2.1362
-0.84532905 -0.88108975 2.1483333
-0.84424621 -0.87522793 2.1475999
-0.8350727 -0.87479025 2.1475
-0.82475853 -0.87438345 2.1465001
-0.81606454 -0.87433189 2.148
-0.86305279 -0.86475551 2.1444287
-0.85724974 -0.86519641 2.1483333
-0.86284709 -0.85690379 2.1425002
-0.85605049 -0.85406995 2.1453333
-0.85485363 -0.8449499 2.1423333
-0.84692127 -0.84493709 2.1473334
-0.85324776 -0.83514613 2.1411431
-0.91216528 -0.77152818 2.1420002
-0.90480119 -0.77332562 2.1433337
-0.89514995 -0.77524942 2.145
-0.88931239 -0.77802414 2.1490002
-0.93493479 -0.76143074 2.1442502
-0.92555684 -0.76286572 2.1454999
-0.91535336 -0.76659733 2.1448333
-0.90715647 -0.76815289 2.1473334
-0.94240427 -0.75451624 2.1432002
-0.9358421 -0.75721043 2.1463335
-0.99542731 -0.68548405 2.1430001
-0.99575484 -0.67565519 2.1420002
-0.99667573 -0.66544312 2.1448336
-0.99593973 -0.65504271 2.14325
-1.0727793 -0.58541995 2.1423333
-1.0681518 -0.58307827 2.141
-1.0736306 -0.57703912 2.148
-1.0649896 -0.57324165 2.1442001
-1.0559386 -0.57239181 2.1430004
-1.0602193 -0.56737137 2.1490002
-1.05303 -0.56670856 2.1465001
-1.0522702 -0.55942219 2.1490002
-0.66533005 -1.0743047 2.1573334
-0.66983837 -1.0691459 2.1590002
-0.83457279 -0.88232011 2.1513336
-0.82352775 -0.88327712 2.1536667
-0.81539631 -0.88525939 2.1585002
-0.80049604 -0.88024658 2.1560001
-0.79724735 -0.8810631 2.158
-0.83496189 -0.87078804 2.1523335
-0.82449841 -0.87024862 2.151
-0.81455272 -0.87422687 2.151
-0.82531404 -0.86922365 2.1583335
-0.81326747 -0.86807847 2.1554999
-0.85154319 -0.85951084 2.154
-0.84626508 -0.85423368 2.1532502
-0.8422451 -0.84623331 2.154
-0.8367703 -0.84475094 2.1570001
-0.83581221 -0.83481902 2.1532502
-0.89187998 -0.77247602 2.1520002
-0.88390929 -0.7753495 2.1540003
-0.87652689 -0.77813894 2.1566668
-0.91578639 -0.76265776 2.1505001
-0.90511131 -0.76322055 2.1535001
-0.89674294 -0.76678693 2.1554
-0.88725507 -0.76948702 2.1585002
-0.92559785 -0.75821322 2.1548336
-0.9152503 -0.75895298 2.1558003
-0.99603885 -0.66502351 2.1563334
-0.99380624 -0.65358567 2.1515002
-0.99319541 -0.64452958 2.1545
-0.99388319 -0.63572586 2.1516666
-0.99588484 -0.62504363 2.1560001
-1.0658399 -0.56461746 2.1536667
-1.0574734 -0.56206214 2.1515002
-1.060914 -0.55191433 2.1585002
-1.0555574 -0.55515414 2.1530001
-1.0542053 -0.54653794 2.1556666
-0.67315727 -1.0632473 2.1632502
-0.68155062 -1.053854 2.1645002
-0.67876643 -1.0586357 2.1620002
-0.69526434 -1.0445387 2.1635716
-0.68679363 -1.048209 2.1652501
-0.81072098 -0.88669485 2.1620002
-0.80445391 -0.88860875 2.1666667
-0.79235959 -0.88228798 2.1610003
-0.78654289 -0.88473761 2.1670003
-0.77724177 -0.88154262 2.1690001
-0.82503873 -0.86589831 2.1660001
-0.81597137 -0.86536485 2.1653335
-0.80395836 -0.86269599 2.1653335
-0.84251511 -0.85650843 2.1615
-0.83554703 -0.85489535 2.1641667
-0.82920098 -0.85527062 2.1685002
-0.83217382 -0.84550565 2.1623335
-0.82662207 -0.84465796 2.1670003
-0.830522 -0.836519 2.1615
-0.82426453 -0.83456224 2.1645715
-0.81716907 -0.83521742 2.1685002
-0.84635985 -0.79670101 2.1652002
-0.86296409 -0.78290492 2.1643336
-0.85637313 -0.7875272 2.1642003
-0.88228798 -0.77037829 2.161
-0.87510204 -0.77442378 2.1630001
-0.86810482 -0.77798784 2.1655002
-0.90076911 -0.76049358 2.1670001
-0.89512652 -0.76300693 2.1646664
-0.88523746 -0.76520634 2.1633334
-0.87831843 -0.76815474 2.1660001
-0.90689105 -0.7579776 2.1644001
-0.99303895 -0.65502769 2.1628335
-0.9918046 -0.64552319 2.1645002
-0.99372721 -0.63546449 2.1643333
-0.99531478 -0.62403208 2.1663334
-0.99380392 -0.61549842 2.1645
-0.99314702 -0.60369825 2.1652501
-1.0671263 -0.55506259 2.1630001
-1.0647894 -0.54589981 2.1636667
-1.0559037 -0.5424366 2.1605
-1.0458323 -0.54239476 2.1603334
-1.0625969 -0.53580356 2.1660001
-1.0548159 -0.53605491 2.1647143
-1.0441669 -0.5375998 2.1651666
-1.0560459 -0.5285244 2.1690001
-0.78197372 -0.88637072 2.171
-0.81640226 -0.86225808 2.175
-0.8064366 -0.86267626 2.1720002
-0.82405663 -0.85622996 2.1743333
-0.81625205 -0.85550404 2.1767502
-0.80377167 -0.85876536 2.1756668
-0.79535693 -0.85702914 2.1746666
-0.82333803 -0.84608811 2.1706667
-0.81507128 -0.84495956 2.175143
-0.80866432 -0.84089005 2.1780002
-0.81316215 -0.83405924 2.1728001
-0.80810738 -0.83427233 2.1765001
-0.81302202 -0.82508355 2.1735001
-0.84345227 -0.79322624 2.1725001
-0.85369283 -0.78336143 2.1730001
-0.84654921 -0.78617388 2.1762857
-0.83724612 -0.7888853 2.1790001
-0.87271816 -0.77229023 2.1720002
-0.86518604 -0.77551901 2.1754286
-0.85768741 -0.77852625 2.1763334
-0.88525915 -0.76221472 2.1742003
-0.87593275 -0.76732379 2.1750002
-0.89563632 -0.75792235 2.1740003
-0.88841212 -0.75962758 2.1760001
-0.9943561 -0.62594885 2.1730001
-0.9941144 -0.61540478 2.1783335
-0.99396229 -0.60524035 2.178
-0.99204206 -0.59462237 2.1760001
-0.98993409 -0.59114069 2.1780002
-0.99437404 -0.58415765 2.1745
-0.98993409 -0.58711249 2.1780002
-1.0675493 -0.53327256 2.1720002
-1.0505127 -0.53278148 2.1700001
-1.0447328 -0.53290427 2.1705
-1.0645108 -0.52571863 2.1740003
-1.0547251 -0.52484781 2.1731665
-1.0447888 -0.5251559 2.1737499
-1.0642121 -0.5185138 2.1775002
-1.0563996 -0.51863283 2.1780002
-1.0458487 -0.51839471 2.177
-0.80336052 -0.83499712 2.1836667
-0.80339634 -0.82682067 2.1834004
-0.79987133 -0.81605083 2.187
-0.82293284 -0.79304302 2.1838
-0.84310728 -0.78252405 2.1837502
-0.83471751 -0.78623807 2.1842504
-0.82616204 -0.78773677 2.1870003
-0.86241484 -0.77163291 2.1815
-0.85472107 -0.77394193 2.1837502
-0.84663618 -0.77626783 2.1866002
-0.88198 -0.76074517 2.1849999
-0.87580669 -0.7638213 2.1847146
-0.86633003 -0.76700705 2.1855714
-0.99266118 -0.61296576 2.184
-0.99266112 -0.60690773 2.184
-0.99084312 -0.59974736 2.1800001
-0.98997986 -0.59358341 2.187
-0.99063778 -0.58266723 2.184
-0.98975348 -0.58738136 2.1865001
-0.99482131 -0.5749566 2.1828334
-1.0005107 -0.56234509 2.1835001
-0.99760997 -0.5680418 2.1859999
-1.0654371 -0.51482809 2.1858001
-1.0559957 -0.51435375 2.1855001
-1.0455961 -0.51340884 2.1832001
-1.0350699 -0.51399976 2.184
-1.0637592 -0.50910646 2.1890001
-1.0548596 -0.50871879 2.1873336
-1.0443462 -0.50852501 2.1865001
-1.0372062 -0.50899017 2.1885002
-0.75465328 -0.90091258 2.1966667
-0.74698162 -0.90145946 2.1980002
-0.74474084 -0.8940571 2.1938002
-0.73715997 -0.89427763 2.1970003
-0.81201822 -0.79174304 2.1925001
-0.83438474 -0.78166717 2.1926668
-0.82492304 -0.78504401 2.1926668
-0.84432459 -0.77293009 2.1931999
-0.83546358 -0.77658492 2.1955001
-0.87224793 -0.76081169 2.191
-0.86329675 -0.7628665 2.1940002
-0.85507041 -0.76696789 2.1937144
-0.87300301 -0.7327534 2.1980002
-0.86431551 -0.73423672 2.197875
-0.85451466 -0.73258668 2.1975002
-0.84696424 -0.73308676 2.1990001
-0.86303675 -0.72682083 2.1985002
-0.85470951 -0.72665554 2.1980002
-0.99179053 -0.59872133 2.1910002
-0.99044317 -0.58410752 2.197
-0.99224311 -0.57466751 2.1920002
-0.99630332 -0.56395221 2.1949999
-1.0003514 -0.5503453 2.1920002
-0.99819052 -0.5553605 2.1926
-1.0003514 -0.54426414 2.1920002
-0.99630904 -0.54538149 2.1965001
-1.0240521 -0.51354575 2.1906669
-1.0552028 -0.50377935 2.19225
-1.0447364 -0.50389069 2.1940002
-1.0338439 -0.50728184 2.1942501
-1.0245178 -0.50850517 2.1934001
-1.0554559 -0.49674439 2.197
-1.046325 -0.49705973 2.1966002
-1.1873819 -0.29304022 2.1930001
-0.73296362 -0.89712667 2.2006667
-0.75513601 -0.84277564 2.204
-0.76586711 -0.82407284 2.2085001
-0.87650996 -0.73545456 2.2
-0.86972845 -0.73952347 2.2
-0.85568124 -0.73969156 2.2005
-0.87498826 -0.72423154 2.2030001
-0.86605304 -0.72357523 2.201
-0.85422683 -0.7218672 2.2020001
-0.87443835 -0.71526277 2.2067502
-0.86344308 -0.71472555 2.2030001
-0.85601985 -0.71742845 2.204
-0.87483317 -0.70742136 2.2077501
-0.86511534 -0.70986438 2.2090001
-0.86491954 -0.69540799 2.2085001
-0.99110806 -0.5816282 2.2030001
-0.98907357 -0.58570272 2.2030001
-0.99142057 -0.57471073 2.2046001
-0.99241734 -0.5650273 2.2049999
-0.99320519 -0.55462933 2.2044284
-0.99395645 -0.54458851 2.2048001
-0.99585968 -0.53513521 2.2045002
-1.0028778 -0.52027518 2.2020001
-0.99891877 -0.52494168 2.2045002
-1.0055199 -0.51447761 2.2033334
-1.0347538 -0.50364143 2.2005
-1.0243468 -0.50352699 2.2
-1.0075694 -0.50633496 2.2063334
-1.0551038 -0.49143195 2.2005
-1.0435371 -0.49398533 2.201
-1.0342834 -0.4954977 2.20275
-1.0241683 -0.49628595 2.2040002
-1.017158 -0.49787259 2.2050002
-1.0549028 -0.48413193 2.2043333
-1.0451057 -0.48431566 2.2051668
-1.0352817 -0.483742 2.204875
-1.0263814 -0.48582146 2.2058337
-1.0199044 -0.48902321 2.2080002
-1.0550934 -0.47698802 2.2090001
-1.0462124 -0.47462225 2.2075002
-1.0367728 -0.47500944 2.2074001
-1.0428368 -0.46881694 2.2090001
-0.64521623 -0.9632076 2.2185001
-0.70044994 -0.93837732 2.2180002
-0.69414061 -0.93816578 2.2175002
-0.68485594 -0.93668503 2.2140002
-0.67173457 -0.93427515 2.2180002
-0.76366735 -0.84136307 2.2110002
-0.75594443 -0.84187049 2.2123334
-0.74731034 -0.84136307 2.2110002
-0.76332194 -0.8348515 2.21
-0.7572518 -0.83574194 2.2141666
-0.74644595 -0.83859921 2.2145
-0.76332194 -0.82463294 2.21
-0.7576465 -0.82451034 2.2133334
-0.77504671 -0.81430054 2.2108002
-0.76451063 -0.81363463 2.2134445
-0.75603408 -0.81591022 2.2174001
-0.77636176 -0.80500436 2.2122223
-0.76984006 -0.80469298 2.217
-0.77599013 -0.79649097 2.2170002
-0.7873705 -0.78873676 2.2163334
-0.805237 -0.77856719 2.2185001
-0.86141956 -0.69792354 2.21
-0.99036455 -0.55611992 2.2150002
-0.98969388 -0.55574238 2.2135
-0.9920575 -0.54419732 2.2165
-0.99424881 -0.53394753 2.2122502
-0.99594605 -0.52509737 2.2137501
-1.0012964 -0.51445389 2.2120001
-0.99752063 -0.5177269 2.2172501
-1.0045863 -0.50485456 2.2147503
-1.0134952 -0.49361369 2.2133334
-1.0085697 -0.49608287 2.2167501
-1.0228065 -0.48294482 2.2113335
-1.0161533 -0.48571905 2.2146666
-1.0558095 -0.47322357 2.2105002
-1.0330904 -0.47311655 2.21
-1.0256537 -0.47489575 2.2128572
-1.0178334 -0.47457817 2.2168334
-1.0550696 -0.46592203 2.2146668
-1.0453854 -0.46450108 2.2118001
-1.0344912 -0.46557125 2.2130001
-1.0256071 -0.46637124 2.2168002
-1.0552908 -0.4584204 2.2179999
-1.0464957 -0.45611095 2.2167501
-1.0366725 -0.45835149 2.2176666
-0.55040032 -1.1100597 2.2250001
-0.54702175 -1.1115564 2.2280002
-0.52447605 -1.1118059 2.2285001
-0.56442243 -1.1051952 2.2235003
-0.55576164 -1.1060827 2.225286
-0.54726726 -1.1079328 2.2290001
-0.55963486 -1.0996877 2.2290001
-0.5307771 -1.0914426 2.2290001
-0.6008603 -1.0213594 2.2290001
-0.59467649 -1.0213594 2.2290001
-0.6132279 -1.0131143 2.2290001
-0.60491502 -1.015062 2.2287502
-0.62325454 -1.0002978 2.2280002
-0.6140517 -1.0045316 2.22825
-0.60910535 -1.0048692 2.2290001
-0.6231848 -0.99400496 2.2277503
-0.61597359 -0.99606484 2.2277501
-0.64208567 -0.98425657 2.2290001
-0.63561666 -0.98587626 2.2280002
-0.62540811 -0.98602253 2.2283335
-0.61528921 -0.98631781 2.2290001
-0.64454174 -0.97555089 2.2232499
-0.63390487 -0.97705597 2.2220001
-0.62440133 -0.97723782 2.22475
-0.65327889 -0.9660297 2.2250001
-0.64594376 -0.96840078 2.2210002
-0.68475831 -0.93806618 2.2270002
-0.67639488 -0.9341982 2.2243335
-0.69474345 -0.92411846 2.2260001
-0.68467891 -0.92354727 2.2267501
-0.67004043 -0.92941093 2.2260001
-0.70471817 -0.91459131 2.2250001
-0.69601882 -0.91397476 2.2235003
-0.68537611 -0.91349483 2.2223337
-0.67546618 -0.9152478 2.2276001
-0.71428156 -0.90647173 2.2227502
-0.70525461 -0.90505344 2.2228
-0.69562733 -0.90524018 2.22225
-0.68508238 -0.90477943 2.2232859
-0.67583299 -0.90648967 2.227
-0.68658984 -0.89715338 2.2236001
-0.76425475 -0.80434358 2.2231252
-0.77397186 -0.79451722 2.2218001
-0.76670301 -0.79551911 2.2257502
-0.78405011 -0.78404987 2.223875
-0.77564448 -0.78634906 2.2266002
-0.76730645 -0.78790486 2.2275
-0.82015252 -0.77088177 2.22
-0.81472611 -0.77157629 2.2220001
-0.80527419 -0.77321899 2.2220001
-0.79567397 -0.77615339 2.2218752
-0.78817791 -0.77582568 2.2263334
-0.82226068 -0.76472694 2.2220001
-0.8132841 -0.76566118 2.2252858
-0.80432385 -0.76518804 2.2273333
-0.79712915 -0.76828003 2.2283335
-0.81490898 -0.75941837 2.2225003
-0.80481261 -0.75342298 2.223
-0.79689026 -0.75431722 2.2276666
-0.9924531 -0.53480893 2.2252002
-0.9940905 -0.52531385 2.2233334
-1.0008119 -0.51221043 2.22
-0.99590749 -0.51458132 2.2243335
-1.0037553 -0.50393379 2.2242501
-0.99917531 -0.50730485 2.2255001
-1.0061088 -0.49430707 2.2256668
-1.0119866 -0.48184898 2.2220001
-1.007115 -0.4852888 2.2260003
-1.012853 -0.47507581 2.2230003
-1.0087655 -0.47501576 2.2285001
-1.0227166 -0.4621917 2.223
-1.0151802 -0.46593413 2.2244999
-1.0549017 -0.45298082 2.2215002
-1.0428076 -0.45205444 2.2220001
-1.0342274 -0.45489335 2.2241669
-1.0262749 -0.45806521 2.2262502
-0.54338837 -1.1125542 2.23
-0.5353002 -1.1128868 2.2306669
-0.55301195 -1.1015558 2.23
-0.54538 -1.1041731 2.2314
-0.5356735 -1.1054057 2.2322223
-0.52689081 -1.1063676 2.23
-0.55437833 -1.0949121 2.2344
-0.54479665 -1.0947597 2.2357779
-0.53416413 -1.0954999 2.2316668
-0.55570161 -1.0859644 2.2364001
-0.54572773 -1.0850418 2.2361999
-0.53513962 -1.0878079 2.23
-0.5546509 -1.0761874 2.2380002
-0.54630804 -1.0750586 2.2335
-0.55361617 -1.0648066 2.2379999
-0.54775828 -1.0676645 2.2310002
-0.58472514 -1.0525059 2.2382503
-0.57456869 -1.051823 2.2390001
-0.56473833 -1.0532349 2.2383335
-0.55763072 -1.0562925 2.2375002
-0.5845294 -1.0438769 2.2375002
-0.57503688 -1.0443374 2.2375998
-0.56534004 -1.0438585 2.23525
-0.5946638 -1.034209 2.2336001
-0.58485425 -1.0335679 2.234
-0.57535154 -1.0339808 2.2340002
-0.60559398 -1.024454 2.23125
-0.59494328 -1.025942 2.23
-0.58456558 -1.0239116 2.2320001
-0.61652958 -1.0167743 2.2310002
-0.60423887 -1.0141724 2.2313335
-0.59497124 -1.0151242 2.2334285
-0.58613837 -1.0182487 2.2357502
-0.62409467 -1.0057709 2.2309999
-0.61762738 -1.0094445 2.23
-0.60515594 -1.0053498 2.234
-0.59932566 -1.0050874 2.2386668
-0.63416111 -0.99564916 2.2337501
-0.61350304 -0.99294692 2.23
-0.60678405 -0.99575627 2.2326002
-0.65062255 -0.98057371 2.23
-0.60561484 -0.98941374 2.2313335
-0.6858331 -0.93335199 2.2305
-0.6775834 -0.93128979 2.2305002
-0.67577267 -0.92544717 2.2313335
-0.6712445 -0.91870791 2.23
-0.79085177 -0.77022982 2.23
-0.79471982 -0.76417863 2.2316
-0.7929365 -0.75716037 2.2320001
-0.82495278 -0.72170681 2.233
-0.81481326 -0.7218684 2.2335
-0.84166336 -0.71153891 2.2335
-0.83658838 -0.71663195 2.2365
-0.81572711 -0.71647316 2.2360001
-0.84710664 -0.7054556 2.2338574
-0.83531082 -0.70460731 2.2364001
-0.82982773 -0.70168495 2.2350001
-0.81329322 -0.70995224 2.2350001
-0.85087645 -0.69786346 2.2360001
-0.99231178 -0.5245319 2.2316668
-0.98970938 -0.52736336 2.2320001
-0.99367201 -0.51491439 2.2342858
-1.0011957 -0.50214452 2.23
-0.99746084 -0.50544888 2.2355001
-1.0028697 -0.4967936 2.2306669
-0.99714327 -0.49391961 2.2363336
-1.0013453 -0.48571888 2.2303336
-0.99757266 -0.48483095 2.2357502
-1.004742 -0.47567558 2.234833
-1.0138977 -0.46255311 2.233
-1.0096374 -0.46813077 2.2350001
-1.0839161 -0.38408104 2.2390001
-1.0749928 -0.38385233 2.2376668
-1.0917103 -0.37149194 2.2380002
-1.0839664 -0.37510118 2.2348335
-1.0741664 -0.37562492 2.234875
-1.0682271 -0.37124294 2.2365003
-1.0924402 -0.36437568 2.2366669
-1.083118 -0.36493716 2.2316668
-1.1119092 -0.35270888 2.237
-1.1052085 -0.35462034 2.2360001
-1.0963249 -0.35648796 2.23475
-1.0864769 -0.35596839 2.2315001
-1.0942398 -0.34755826 2.2305002
-0.55862761 -1.0747608 2.2414999
-0.56522411 -1.0651121 2.2430003
-0.55912602 -1.0674229 2.2435002
-0.57482529 -1.0554 2.24
-0.59330708 -1.0121108 2.2420001
-0.58577102 -1.0129144 2.24225
-0.59412968 -1.0047344 2.2425001
-0.58603275 -1.0050708 2.2432501
-0.7235266 -0.82383806 2.2412
-0.71547025 -0.82197756 2.2436666
-0.72533387 -0.8155486 2.2426252
-0.71653342 -0.81488872 2.247
-0.73334026 -0.8045668 2.2433333
-0.72598827 -0.80803823 2.2462502
-0.71823943 -0.80970842 2.2480001
-0.73618311 -0.79640478 2.2456667
-0.82450116 -0.72079033 2.243
-0.79025531 -0.72811204 2.24
-0.83430403 -0.71402758 2.2426002
-0.8266198 -0.71451348 2.2450001
-0.81962126 -0.71185815 2.2410002
-0.84411281 -0.70325476 2.24
-0.81540185 -0.70945036 2.2465
-0.84825569 -0.69911188 2.24
-0.99226111 -0.49561176 2.2440002
-0.9939909 -0.48558265 2.244
-1.0035512 -0.47427598 2.2445002
-0.99829012 -0.47996712 2.2420001
-1.0102791 -0.46317407 2.2410002
-1.0070025 -0.46509054 2.2452502
-1.0345546 -0.43456152 2.2461431
-1.0254501 -0.43740037 2.2470002
-1.0180451 -0.43987036 2.2490001
-1.054473 -0.40548569 2.2457502
-1.0471618 -0.40451437 2.2490001
-1.0751216 -0.39500687 2.24225
-1.0662155 -0.39554903 2.2453334
-1.0550901 -0.39604831 2.2481668
-1.0454656 -0.39538518 2.2483335
-1.0388428 -0.39411554 2.2490001
-1.074043 -0.38839549 2.24
-1.0656878 -0.3849777 2.2442224
-1.05573 -0.38604894 2.2470002
-1.0452452 -0.38476351 2.2460001
-1.0635206 -0.37454426 2.2414
-1.0543863 -0.37427166 2.24225
-1.0973185 -0.36784521 2.2410002
-0.7129153 -0.81538516 2.2522001
-0.70518142 -0.81709331 2.2550001
-0.69668579 -0.8178485 2.2590001
-0.72376049 -0.80290532 2.2522502
-0.71639335 -0.80518055 2.255286
-0.70921987 -0.80949247 2.2590001
-0.73179597 -0.79425174 2.2513335
-0.7262041 -0.79594886 2.2561431
-0.75216943 -0.78129911 2.25
-0.74360764 -0.78358948 2.2518001
-0.73607945 -0.78679466 2.2538335
-0.72769773 -0.78825325 2.2580001
-0.762218 -0.77470702 2.2510002
-0.75500464 -0.77583188 2.25225
-0.7443825 -0.77534449 2.2534287
-0.73668647 -0.77425218 2.2567501
-0.99813432 -0.4777306 2.2510002
-1.0091435 -0.44560814 2.2570002
-1.0434661 -0.4109363 2.25
-1.0163047 -0.41466904 2.2590001
-1.0423106 -0.40505439 2.2520001
-1.0338299 -0.40506801 2.2544
-1.0258398 -0.40699637 2.257
-1.0434661 -0.39845213 2.25
-1.0339645 -0.39553165 2.2546999
-0.70530939 -0.81419516 2.2643335
-0.69613785 -0.81756139 2.2639999
-0.71209562 -0.80202299 2.2615001
-0.70789164 -0.80558109 2.2636669
-0.72271246 -0.7938332 2.2620001
-0.71557176 -0.79519552 2.2658892
-0.70785075 -0.79803526 2.2680001
-0.73204201 -0.7822153 2.2606668
-0.72334856 -0.78496361 2.2640002
-0.73284632 -0.77675533 2.2610002
-0.72496396 -0.77727067 2.2625
-1.0041896 -0.44502845 2.2646668
-1.010932 -0.41503617 2.2610002
-1.0051773 -0.41618973 2.2649999
-1.0237015 -0.40153366 2.2615001
-1.0153738 -0.40541494 2.2627501
-1.0075471 -0.40784091 2.2674999
-1.024605 -0.39456379 2.2635002
-1.0182564 -0.39534774 2.2680001
-1.0217413 -0.38685945 2.2633333
-1.0165583 -0.3847467 2.2673333
-0.70199174 -0.81263018 2.2716668
-0.69520599 -0.81510276 2.2746668
-0.68659437 -0.8170501 2.2754002
-0.70346224 -0.80518818 2.2728
-0.69863886 -0.80822927 2.279
-0.70462364 -0.79418623 2.2750001
-0.69863886 -0.7955842 2.279
-0.71492946 -0.786318 2.2705002
-0.70607299 -0.78417677 2.2738571
-0.69576639 -0.78418595 2.2765
-0.71267331 -0.77984726 2.2700002
-0.7549895 -0.71718752 2.2710001
-0.78293914 -0.68599379 2.279
-0.77559435 -0.68509078 2.276
-1.0013373 -0.41436958 2.2734001
-1.0112029 -0.40217105 2.2710001
-1.0039005 -0.40463328 2.2754002
-1.0140409 -0.39506182 2.2736001
-1.0087204 -0.39590755 2.2772503
-1.0137479 -0.38553894 2.2720001
-1.0073349 -0.3841992 2.2765002
-1.0116482 -0.37503466 2.2720001
-1.0050806 -0.37572232 2.2761667
-0.68488568 -0.8136301 2.2823334
-0.67547143 -0.8154825 2.284143
-0.66419339 -0.81624699 2.2837501
-0.69443464 -0.80542433 2.2830002
-0.68719143 -0.80566186 2.2876668
-0.69473541 -0.79522216 2.2828002
-0.68578148 -0.79437858 2.2876668
-0.69051164 -0.78749955 2.2800002
-0.68546009 -0.78685582 2.2842503
-0.78374344 -0.69278312 2.2875001
-0.77562183 -0.69308591 2.2885001
-0.76775986 -0.69594735 2.2840002
-0.78888112 -0.68749881 2.2840002
-0.67465609 -0.81177878 2.2930002
-0.6662488 -0.81227511 2.2952001
-0.65430415 -0.81337154 2.2934999
-0.64283705 -0.81071728 2.2980001
-0.6821903 -0.80400914 2.2910001
-0.67468721 -0.80450052 2.2958572
-0.66650188 -0.80681807 2.299
-0.68405533 -0.7970643 2.2913334
-0.67529035 -0.79402566 2.2927501
-0.66595852 -0.7941035 2.2942002
-0.66253793 -0.81142288 2.3000002
-0.65440941 -0.81189328 2.3013334
-0.66424394 -0.80468279 2.3010001
-0.65582925 -0.80567288 2.3038332
-0.64423573 -0.80822188 2.303
-0.63282752 -0.80570793 2.3080001
-0.66253793 -0.79866129 2.3000002
-0.6545971 -0.79722607 2.302
-0.98462957 -0.39491582 2.3021667
-0.98573399 -0.38470215 2.30475
-0.65260148 -0.80426991 2.3100002
-0.64521855 -0.8057189 2.314167
-0.63502109 -0.80421722 2.3160002
-0.62658989 -0.80439085 2.3165002
-0.64006144 -0.79820681 2.3110001
-0.63351345 -0.79803407 2.3105001
-0.98441297 -0.35689846 2.3133335
-0.98226738 -0.34716558 2.3150001
-0.97664011 -0.34123617 2.3134999
-0.49730757 -0.97420728 2.3230002
-0.98153085 -0.36579454 2.3200002
-0.97684735 -0.36532348 2.3252001
-0.98153085 -0.3550674 2.3200002
-0.97745579 -0.35490996 2.3246002
-0.97401571 -0.34545454 2.3246
-0.96810853 -0.3435224 2.329
-0.96787673 -0.33719769 2.325
-0.9664802 -0.33533755 2.332
-0.78423196 -0.46477112 2.3990002
-0.77643883 -0.46409306 2.3955002
-0.78259748 -0.45937476 2.3940001
-0.77849483 -0.45513707 2.3950002
-0.5233227 -0.77442777 2.4030001
-0.51730025 -0.77762043 2.4060001
-0.55136204 -0.76522368 2.4090002
-0.54645258 -0.76458842 2.4070001
-0.52163941 -0.76856089 2.4055002
-0.77539366 -0.47057718 2.4060001
-0.78521454 -0.46535048 2.402
-0.77523112 -0.46380916 2.4055002
-0.78239542 -0.45296577 2.4070001
-0.78932643 -0.43851468 2.401
-0.52038985 -0.77445596 2.4100001
-0.51395446 -0.77744198 2.4146669
-0.78608775 -0.44489336 2.4115
-0.5193578 -0.77511066 2.4260001
-0.61537796 -0.51146644 2.4970002
-0.59630519 -0.51095438 2.4945002
-0.61282146 -0.50664526 2.4960001
-0.60520816 -0.50517291 2.4963334
-0.59654468 -0.50423604 2.4955001
-0.59702373 -0.49540144 2.4975002
-0.60917979 -0.50283343 2.5
-0.6146971 -0.49534756 2.506
-0.60503972 -0.4962936 2.5020001
-0.60357082 -0.48540118 2.5055001
-0.59570545 -0.48465943 2.5016668
-0.61503923 -0.46621859 2.5145001
-0.033180766 -0.53488135 2.8705001
1.6051618 -1.5053422 3.4820001
1.6042315 -1.5105301 3.4940002
1.6046906 -1.5044985 3.4950001
1.6049201 -1.4950167 3.4955001
1.60677 -1.4840441 3.4925003
1.6037141 -1.4902055 3.5070002
1.5764158 -0.9255529 3.7840002
1.5844895 -0.92365456 3.7810001
1.5850881 -0.91602331 3.7880001
1.5943325 -0.91529787 3.7850003
1.5986779 -0.90527546 3.7870002
1.5747954 -0.9144904 3.7913334
1.5651711 -0.88527209 3.7963336
1.5752238 -0.8833195 3.7980001
1.5826648 -0.88355207 3.7990003
1.5642753 -0.87606436 3.7970002
1.5752238 -0.87629509 3.7980001
1.5857604 -0.87629509 3.7980001
1.5238431 -0.81540465 3.7925003
1.5936236 -0.88378465 3.8000002
1.5521846 -0.85437542 3.8046668
1.5553493 -0.8454383 3.8066666
1.566642 -0.84574091 3.8027501
1.5441568 -0.8363449 3.8080001
1.5268565 -0.82755977 3.8000002
1.534692 -0.82448041 3.802
1.5429404 -0.82513094 3.8050003
1.5534116 -0.82453537 3.8076668
1.5656966 -0.82247508 3.8090003
1.5338848 -0.81350356 3.8000002
1.5452406 -0.8139317 3.802
1.5578334 -0.81500214 3.8070002
1.5348939 -0.80348825 3.8025002
1.5375175 -0.79429603 3.8090003
1.5555377 -0.83678418 3.8100002
1.5661076 -0.83678418 3.8100002
1.5590611 -0.8297376 3.8100002
1.5661076 -0.8297376 3.8100002
1.5478064 -0.78890473 3.8170002
1.5706292 -0.80386537 3.8210001
1.5419577 -0.78952479 3.8200002
1.5526724 -0.78430319 3.8290002
1.5468017 -0.78491765 3.8320003
1.5496272 -0.77925128 3.8390002
1.5553983 -0.77680826 3.8445001
1.5679013 -0.77416235 3.8490002
1.5654571 -0.76584792 3.8430002
1.5626106 -0.75553012 3.8447502
1.5607824 -0.74568743 3.8490002
1.561188 -0.77436346 3.8500001
1.5552784 -0.7642777 3.8530002
1.561188 -0.76724291 3.8500001
1.554471 -0.75319731 3.8510001
1.5523162 -0.74675298 3.8545003
1.5687159 -0.74607486 3.8510001
1.5495585 -0.73644102 3.8565001
1.5546728 -0.73548716 3.8515
1.5613908 -0.73529625 3.8505001
1.5711601 -0.73653513 3.8570004
1.5531225 -0.72574258 3.8565001
1.5572966 -0.71888953 3.8580003
1.4543792 -0.61059004 3.8500001
1.5540155 -0.71481091 3.8616669
1.5517684 -0.70534933 3.8620002
1.5370848 -0.69088483 3.8610003
1.5450256 -0.69124269 3.8630002
1.5370848 -0.68374389 3.8610003
1.4615567 -0.58498049 3.8690002
1.445375 -0.57707798 3.8640001
1.4528973 -0.57722735 3.8650002
1.4619344 -0.59228921 3.8700001
2.1396375 -0.9753387 4.1280003
2.057004 -0.76580262 4.1930003
